# .PCD v0.7 - Point Cloud Data file format
VERSION 0.7
FIELDS x y z rgb
SIZE 4 4 4 4
TYPE F F F F
COUNT 1 1 1 1
WIDTH 994
HEIGHT 1
VIEWPOINT 0 0 0 1 0 0 0
POINTS 994
DATA ascii
-0.30123687 0.32377115 0.19645062 9.8393489e-39
-1.3103034 0.41139007 -0.26517731 1.0306804e-38
-1.4138283 0.064715654 -0.52426255 1.2894753e-38
-1.1289113 0.52801585 -0.19151393 7.0957845e-39
-1.3862523 0.29410082 -0.38742211 1.2989762e-38
-1.132385 0.33917832 -0.72936708 2.3325842e-38
-0.48011619 -0.0096430667 0.73093575 8.214832e-39
-1.1563429 0.49005061 -0.2356203 6.08382e-39
-1.2216957 0.61102736 -0.85188359 1.3062223e-38
-0.16857655 0.13031244 0.70096326 6.2480549e-39
-1.2092577 0.55135292 -0.66335618 9.3016777e-39
-1.0201538 0.51264298 -0.054515366 6.0794563e-39
-1.6272004 0.17083335 -0.80425495 1.2802906e-38
0.16258897 0.12125182 0.44617164 1.3367275e-38
-0.99425888 0.15749675 0.12571792 1.5667824e-38
-0.47508284 0.31483549 0.20424719 1.0299266e-38
-1.0661386 0.55155224 -0.62388718 1.1980358e-38
-0.52727741 0.26843035 0.12032138 2.1661618e-38
-1.1365579 0.32135105 -0.71382076 2.3509872e-38
-0.56822878 0.20269361 0.32944909 1.6503389e-38
-0.20757239 0.072723873 0.7178399 5.6055722e-39
-0.26301384 0.25161296 0.37767407 1.0857504e-38
-0.28909516 0.31338954 0.22211988 1.0756614e-38
-0.39573386 0.28569484 0.29944289 1.0387904e-38
-1.4518391 0.32483733 -0.47738352 1.6863481e-38
-1.1239649 0.35744348 -0.71456063 2.0005363e-38
-1.3521289 0.2015668 -0.38162899 1.3450072e-38
-0.63092744 0.45903951 -0.2282322 8.9328601e-39
-1.3434026 0.1608931 -0.38011283 1.271431e-38
-1.1336923 0.52419448 -0.8065654 1.3889836e-38
-0.75031632 0.002703883 0.41348472 1.3465251e-38
-0.50181627 0.40444851 -0.068959586 1.4352965e-38
-0.26659399 -0.13145466 0.72976702 7.4675279e-39
-0.6245687 0.41696951 -0.085932501 9.9225566e-39
-0.53028524 0.21371427 0.35261437 1.3466715e-38
-0.6160925 -0.020699002 0.57233506 6.9140038e-39
-1.4169165 0.3273021 -0.41610536 1.6586146e-38
-1.3518804 0.18085808 -0.39271164 1.2898731e-38
-1.2003392 0.48517239 -0.2943331 7.8308061e-39
-0.73206472 -0.022137487 0.42823386 1.3556004e-38
-1.2615823 0.48383725 -0.39681357 7.9270291e-39
0.019264612 0.009754519 0.53068531 1.3919057e-38
-1.0503681 0.27784771 0.05641995 9.2018828e-39
-1.3272386 0.19391765 -0.34115863 1.2527415e-38
-0.53572249 -0.1783724 0.61850077 7.6591149e-39
-0.2889125 0.34147415 0.13743196 1.1583859e-38
-0.55119258 0.42435932 -0.11514729 1.2968195e-38
-1.3879435 0.13367771 -0.46307084 1.3818877e-38
-0.98280084 0.23203388 0.13461022 8.1866799e-39
-0.66265726 0.26681113 0.025787942 1.844709e-38
-0.689731 -0.016858233 0.48766741 9.8620808e-39
-0.65737998 -0.039874874 0.52329189 1.2085556e-38
-0.34828472 0.26823518 0.34955412 9.8426265e-39
-0.46852624 0.31690854 0.21398087 1.0119173e-38
-0.64856404 0.4160966 -0.098557748 1.2044834e-38
-1.3195825 0.075087175 -0.37600249 1.1794188e-38
-1.3178892 0.099858321 -0.36892503 1.3540844e-38
-0.51150411 -0.21565272 0.6420539 1.0061612e-38
-1.3082237 0.25463602 -0.28979903 1.6769468e-38
-1.3322225 0.083135501 -0.39129338 1.2158279e-38
-0.65988511 0.42645073 -0.11743534 1.1306548e-38
-1.5192499 0.10855562 -0.67399287 1.2710342e-38
-0.89554042 0.02003794 0.21441427 9.8623918e-39
-0.75021482 -0.05307157 0.38176331 1.3554924e-38
-1.1615485 0.59217757 -0.26811489 1.1705232e-38
-0.59377205 0.17970258 0.3953937 1.1704905e-38
-1.6708732 0.30456012 -0.82750207 1.381563e-38
-1.0026261 0.16991343 0.12066655 1.5202122e-38
-0.5498693 -0.12822805 0.62480372 1.069546e-38
0.060021069 -0.021459633 0.48934311 1.3274765e-38
0.12475013 0.10192004 0.465 1.4195606e-38
-1.0144324 0.32033432 0.12647599 9.5682116e-39
-0.66635042 0.033413779 0.53676116 1.3373426e-38
-1.272248 0.071369044 -0.30613792 1.2345522e-38
-0.32951364 0.32224384 0.19872473 1.0856406e-38
-1.2458757 0.23322675 -0.20039213 1.6863484e-38
-1.0504277 0.26497352 0.061854046 7.8164204e-39
-0.23605382 0.073348671 0.73837978 4.046566e-39
-0.61723018 0.4704605 -0.27094424 1.6692421e-38
-0.57897657 0.21303453 0.3241477 1.7335319e-38
-0.95676589 0.050393894 0.13651742 1.2534643e-38
-1.0935136 0.56845927 -0.16703305 1.3183231e-38
-0.95680159 0.056369577 0.13898963 1.3553834e-38
-1.5138222 0.20732841 -0.62924361 1.0313628e-38
-1.1369531 0.49372908 -0.21174957 6.7277671e-39
-0.45197406 -0.0020166924 0.76682872 4.7841156e-39
-1.4070694 0.072379835 -0.51725513 1.2068235e-38
-1.3659095 0.19338274 -0.4002412 1.3357173e-38
-0.38463652 0.32042703 0.19631818 1.1769712e-38
-1.2978034 0.37381485 -0.81514949 1.5393784e-38
-0.67965698 0.41664135 -0.11531102 1.2693424e-38
-0.25282156 0.15263431 0.65201145 9.0182777e-39
-1.3220468 0.27935705 -0.29315943 1.6034086e-38
-0.67489147 0.3205367 0.060219735 1.152193e-38
-1.5278456 0.2235561 -0.64406157 1.4277648e-38
-1.326526 0.17081158 -0.35344559 9.9484358e-39
-0.78405267 -0.0065289713 0.36310413 1.1071057e-38
-1.3261358 0.18594128 -0.35199845 1.2991633e-38
-0.97850335 0.012375174 0.090519816 1.2538962e-38
-0.44063067 -0.16247849 0.75001425 9.8797609e-39
-1.1775155 0.59066486 -0.28133112 2.3509886e-38
-0.39169586 -0.14258905 0.82111961 1.0520814e-38
-0.41504684 -0.15850569 0.77453214 9.689623e-39
-0.64950824 -0.095301218 0.51071924 8.7553983e-39
-0.63887185 0.40372971 -0.078668796 1.3800848e-38
-1.2245022 0.52963746 -0.31956229 6.9099681e-39
-0.25934741 0.082741909 0.76525891 2.3877369e-39
-1.1900139 0.60997832 -0.32381451 1.2349174e-38
-0.19228873 0.23135248 0.425717 1.0306849e-38
-0.29023594 0.16734804 0.46504906 1.7693117e-38
-1.1474053 0.47289783 -0.2223049 7.1854367e-39
-0.85631597 0.036514256 0.26757926 1.0149795e-38
-0.38399026 0.24944878 0.39460564 9.0124973e-39
-0.29856274 0.26994082 0.34742552 1.021393e-38
-1.1916782 0.62526822 -0.89400363 1.2693816e-38
-1.1302464 0.50351769 -0.19606528 5.2540999e-39
-0.66692704 -0.0374787 0.4998517 1.0512835e-38
-1.2427788 0.2521888 -0.19167097 1.8797424e-38
-1.0519707 0.5537048 -0.627316 1.2348081e-38
-0.85656977 0.26053739 0.08897496 9.3826601e-40
-1.2539399 0.48687321 -0.39489764 1.0150542e-38
-0.89258969 0.34521726 0.0071456619 2.1107372e-38
-0.66079307 0.023441844 0.54016113 1.0415605e-38
-0.18642908 -0.010672744 0.70405465 9.2163582e-39
-0.52837318 -0.001112408 0.70780993 1.162497e-38
-1.1290524 0.39748406 -0.69334584 1.3367625e-38
-1.0385993 0.58369607 -0.71071094 1.1223731e-38
-1.3943501 0.19729918 -0.44606644 1.4000374e-38
-1.2902169 0.20652047 -0.27343562 1.2068237e-38
-1.281352 0.22653197 -0.25090373 1.2625377e-38
-1.3390974 0.055401891 -0.40752697 1.15165e-38
-0.60715663 0.19005558 0.33093792 1.5027522e-38
-1.2413913 0.49082682 -0.36490354 8.3851136e-39
-0.44064417 0.42191252 -0.1090296 1.3704706e-38
-0.4283058 0.33909354 0.13652788 1.1956251e-38
-1.3021907 0.21080463 -0.30621377 1.2805409e-38
-1.1451466 0.53440952 -0.22027966 6.0863395e-39
-0.55960196 -0.0084389355 0.6626153 1.1070706e-38
-1.1521417 0.5302344 -0.22686695 9.4006724e-39
-1.6447688 0.27959928 -0.79030907 1.4826503e-38
-0.79536897 -0.041328169 0.33376685 8.7585848e-39
-0.49142021 0.20198558 0.38032085 1.8263424e-38
-0.47473785 0.15820757 0.3799156 1.8898685e-38
-1.0078001 0.58669943 -0.72041172 1.2879303e-38
-0.987391 0.22643371 0.12823425 1.0489795e-38
-1.0689777 0.50138807 -0.76191455 1.2948846e-38
-0.081810102 0.22094479 0.46187904 9.3845351e-39
-0.55219889 -0.11984857 0.61536819 7.1016377e-39
-0.35122481 0.26797602 0.32619429 1.0029539e-38
-0.60374725 -0.039974879 0.57837361 7.0076064e-39
-0.30731583 0.26512787 0.33587274 8.4662011e-39
-1.6651689 0.22181268 -0.84210098 1.3814171e-38
-1.3414088 0.19220237 -0.36289728 1.2438071e-38
-0.30276003 0.26131701 0.34143084 1.0489808e-38
0.011034667 -0.10073857 0.5087499 1.3456631e-38
0.10133614 -0.043205332 0.44800001 1.5854755e-38
-1.4760687 0.28287733 -0.53670961 1.4833378e-38
-1.1857007 0.29957709 -0.71664411 2.1757427e-38
-1.2620354 0.2058022 -0.23437147 1.3176733e-38
-1.168196 0.31359366 -0.67680937 1.1983634e-38
-1.5389609 0.21522094 -0.66185063 1.3908532e-38
-0.59773421 0.27189767 0.090692848 2.2220599e-38
-1.2862501 0.16444951 -0.29916117 1.2620297e-38
-0.67151314 0.42446887 -0.11233058 1.075769e-38
-0.55641937 0.21756177 0.33882821 1.6228274e-38
-0.56019104 0.26643521 0.11873838 2.2774837e-38
-0.39604661 -0.19721892 0.79105574 8.1287642e-39
-0.34685114 0.21690926 0.47449982 1.0392119e-38
-1.2853372 0.15495752 -0.29259342 1.3726684e-38
-0.60189503 -0.10487971 0.57235652 1.0061571e-38
-1.5279291 0.61777467 -1.0596385 1.5106409e-38
-1.3503211 0.069767579 -0.42745346 1.2348066e-38
0.020620588 -0.013028976 0.51027441 1.2169145e-38
-0.61351407 0.38962483 -0.023514694 1.2968595e-38
-1.2649248 0.46423134 -0.38793045 9.5800288e-39
-1.0029174 0.066622213 0.081749879 1.0317957e-38
-1.2301961 0.61576539 -0.36406165 1.0782197e-38
-1.2709048 0.29618686 -0.20578714 1.5570597e-38
-0.4856897 0.19041471 0.39743862 1.4299734e-38
-1.3976189 0.16872925 -0.45886284 1.1331376e-38
-0.64559567 0.07334207 0.55610126 5.7093468e-39
-1.4029098 0.15016231 -0.47398812 1.3541923e-38
-0.41809264 0.27616382 0.27747509 2.4032549e-39
-0.92776084 0.076223411 0.19150303 1.1985785e-38
-1.3182471 0.0051499354 -0.40599802 1.1699825e-38
-0.47945401 0.34463665 0.12520669 1.1867653e-38
-1.2610427 0.54413313 -0.38738167 5.8998014e-39
-1.0875831 0.47081962 -0.14134286 5.5331615e-39
-1.0232842 0.23207997 0.079653561 1.0213552e-38
-1.0308579 0.62670738 -0.85707337 1.2698498e-38
0.17726287 0.16261829 0.43956035 1.2261666e-38
-1.2874852 0.33382624 -0.25689697 9.8447593e-39
-0.6510787 0.13669737 0.47460628 1.4573061e-38
-1.3642918 0.16797067 -0.41103235 1.326679e-38
-0.51352918 -0.19039957 0.63690603 8.6761703e-39
-0.43268403 -0.14180821 0.76884049 8.1273027e-39
-0.57133746 -0.0037344599 0.64359403 7.3771302e-39
-1.0662067 0.35580602 -0.0025057348 1.8892872e-38
-0.96915096 0.12173936 0.14606212 1.2623531e-38
-1.2181963 0.29353809 -0.16141701 1.1319151e-38
-1.292942 0.37999216 -0.25485438 1.1133661e-38
-0.350281 -0.064085945 0.82631475 9.220677e-39
-0.7099489 0.037743703 0.47955009 1.1151002e-38
-1.5893708 0.27888224 -0.71112329 1.4092923e-38
-0.97429854 0.048688155 0.12026893 9.1299233e-39
-0.13707215 0.2225513 0.45646068 9.5671284e-39
-0.47323218 0.37569249 0.045160722 1.2971832e-38
-1.2437685 0.49570578 -0.48654103 1.1701247e-38
-1.1043766 0.62070733 -0.85261047 1.3248072e-38
-0.78934234 0.40095484 -0.067058295 1.0940636e-38
-0.54585212 -0.20436886 0.59844565 9.3215425e-39
-1.1574777 0.5234223 -0.56013787 1.0876901e-38
-1.2843012 0.62896001 -0.94303393 1.296894e-38
-1.3036387 0.11361896 -0.33914274 1.2529195e-38
-0.22397815 0.2926273 0.28335404 1.1223044e-38
-0.69557208 0.23884191 0.073930442 1.9452514e-38
-0.65213645 0.40858516 -0.071184434 1.1122858e-38
-0.49520051 0.35442626 0.082182206 1.4166079e-38
-1.3267324 0.10931256 -0.37199482 1.2067534e-38
-0.68984169 0.30427355 0.22786735 7.7242724e-39
-1.1665437 0.53231341 -0.24289186 7.1868675e-39
-0.54330206 0.12725522 0.69490933 2.2959196e-39
-1.3220907 0.23163238 -0.32111207 1.2900883e-38
-0.35633904 0.14602298 0.65924001 3.7681462e-39
-0.65644348 -0.10170429 0.50891483 1.0509245e-38
-1.1281276 0.60109979 -0.28405389 8.7538779e-39
-1.0550307 0.13441478 0.034406815 1.0963664e-38
-0.57558829 -0.14759302 0.57163429 9.4072389e-39
-0.8587532 0.24024767 0.085445702 2.3171871e-41
-1.4523009 0.10919699 -0.57225835 1.3359324e-38
-0.77754873 0.39171159 -0.030156685 9.5606138e-39
-0.42889041 0.35536054 0.099659629 1.2419022e-38
-1.3423471 0.10451095 -0.40490234 1.3079866e-38
0.08362253 0.031842139 0.47745386 1.4655145e-38
-0.42468941 0.41659597 -0.084040001 1.2513726e-38
-0.37716091 0.23546875 0.39541212 9.4785328e-39
-1.2142302 0.48118538 -0.32632449 8.2932711e-39
0.027545052 0.043936346 0.53532875 1.2905625e-38
-0.65624708 0.45337394 -0.21140923 9.8565779e-39
-0.50259471 0.31062379 0.049881067 1.3368033e-38
-1.4693762 0.13542201 -0.58392864 1.4002542e-38
-0.6803984 0.31111267 0.040142965 1.3735373e-38
-0.06932313 0.23533958 0.42552179 9.8451699e-39
-0.53460956 0.35886708 0.063465349 9.7504099e-39
-0.32025188 0.19827777 0.4481506 4.6908116e-39
-1.6084545 0.34585205 -0.70354801 1.7687834e-38
-0.75693196 0.35683903 0.056203354 9.4698223e-39
-0.63521165 -0.063244537 0.52418005 5.4435303e-39
-1.0142529 0.42242792 -0.056793943 9.7654892e-39
-1.0540466 0.63387877 -0.89703786 1.2330423e-38
-1.0965389 0.58826262 -0.76959622 1.3251656e-38
-1.3257928 0.27473959 -0.30596706 1.8427916e-38
-0.67522281 -0.020062856 0.48960164 7.1978004e-39
-1.142938 0.43362769 -0.22295631 8.8457204e-39
-0.25336158 0.22057699 0.47175923 9.9300718e-39
-1.3761152 0.13709818 -0.43990138 1.3540488e-38
-0.15208793 0.077938154 0.67438298 5.9808021e-39
0.093140453 -0.050152551 0.454 1.5487048e-38
-0.94884694 0.088822357 0.15128112 1.2264536e-38
-0.81969011 -0.03090803 0.30058232 1.1153859e-38
-1.181946 0.61618072 -0.47078314 5.0668192e-39
-0.67194217 -0.066634029 0.49771187 1.0137591e-38
-0.69414949 -0.0072878217 0.47339562 1.1524842e-38
-1.1114756 0.50947869 -0.16999188 6.17924e-39
-1.12933 0.39172766 -0.71524364 1.9908495e-38
-0.45397127 0.15484448 0.63369948 4.0436849e-39
-0.15578549 0.036254656 0.67819756 9.4799579e-39
-0.84932494 0.038781915 0.27694947 9.4950555e-39
-1.4119164 0.0947688 -0.51180828 1.3359341e-38
-0.034955531 0.055757809 0.58890736 1.4654063e-38
-0.51735401 -0.16894858 0.64860851 9.595963e-39
-0.48586196 0.17661667 0.36314684 1.6138606e-38
-1.0287209 0.046501201 0.034754049 1.2903418e-38
-0.35371438 0.37605771 0.027152536 1.2971437e-38
-0.59384608 -0.13769858 0.56125003 1.2264559e-38
-1.3132663 0.27899253 -0.28365508 1.6584391e-38
-0.010761664 -0.060644548 0.53806287 1.1799637e-38
-1.3123486 0.47070801 -0.78348655 1.3271467e-38
-0.58374012 0.33155659 0.11457527 2.0099391e-38
0.059497498 0.084497191 0.52091247 1.2627249e-38
-0.40718973 0.38902697 -0.012975913 1.2782031e-38
-1.2095913 0.64244986 -0.96020889 1.2328974e-38
-1.6907572 0.22343333 -0.87939787 1.3264963e-38
-1.1542319 0.31165794 -0.71460974 2.3509153e-38
-1.347774 0.18714532 -0.38262931 1.3541191e-38
-1.3431575 0.2763516 -0.32932642 1.6587225e-38
-0.29162577 0.16492726 0.46660557 1.7873125e-38
-1.0279272 0.47007921 -0.052787323 5.8998042e-39
-0.28855056 0.23973767 0.40601102 1.0122457e-38
-1.1708125 0.32111314 -0.74377799 2.1202101e-38
-0.64658785 -0.081723109 0.50592297 1.0046838e-38
-0.4095735 0.39008287 -0.011098568 1.3150794e-38
-0.44090971 0.25048009 0.24028218 5.4403059e-39
-0.23123355 0.22854389 0.45810848 1.1037538e-38
-0.42065671 0.33995938 0.14288366 1.2138141e-38
-0.94320637 0.048133783 0.15989906 1.2357812e-38
-0.45588222 -0.2295306 0.70192331 5.8224021e-39
-0.47447813 0.39970925 -0.034011208 1.2969674e-38
-1.2802652 0.6423409 -0.95955843 1.3063337e-38
-1.1298351 0.34517354 -0.72189087 2.0653619e-38
-0.65917021 -0.022734443 0.52914202 1.106459e-38
-0.77979511 -0.070097268 0.34635556 1.0699031e-38
-0.67509818 0.35415113 0.06881348 1.0946803e-38
-0.50534761 0.34017646 0.13085423 8.7384342e-39
-1.443871 0.33873397 -0.46005338 1.5384737e-38
-1.6517525 0.25721553 -0.8120724 1.3725573e-38
-1.3661058 0.10446873 -0.43261662 1.225587e-38
-0.30116901 0.2575686 0.35786694 1.0672035e-38
-0.041970402 0.026159352 0.58878672 1.3275837e-38
-0.47420096 -0.12230986 0.72701943 1.1166534e-38
-1.0521954 0.14218821 0.04043255 1.0320465e-38
-1.1462637 0.32513505 -0.72362548 1.8989744e-38
-1.1626508 0.61730671 -0.87234467 1.35243e-38
-0.95150155 0.073419914 0.162517 9.401048e-39
-1.2321503 0.30200526 -0.16524412 9.3927761e-39
-0.53850943 0.21547008 0.33966765 1.9916429e-38
-0.47301254 0.20021886 0.40399313 1.2541885e-38
-0.76310682 0.021973269 0.40287125 1.4109175e-38
-1.1901671 0.29002541 -0.69383025 2.0928013e-38
-1.3658379 0.12984331 -0.4263581 1.2989116e-38
-0.4818005 0.28730926 0.055819277 1.8720417e-38
-0.64999318 0.44515616 -0.17878973 1.1310115e-38
-0.48461735 0.35939446 0.068505019 1.3799423e-38
-0.44464725 -0.079697281 0.77426308 8.678303e-39
-1.1270207 0.44025457 -0.20249882 7.0925741e-39
-0.9918474 0.13130201 0.11896465 1.290159e-38
-0.58243203 -0.11760681 0.58695388 1.2174517e-38
-1.0569073 0.54619473 -0.62179136 1.1701616e-38
-0.68139374 0.46045113 -0.24426596 1.0231879e-38
-1.1414828 0.54112262 -0.78406554 8.2842537e-39
-1.1256154 0.35902998 -0.71229637 1.9449658e-38
-1.1512228 0.60345024 -0.26526314 9.7698249e-39
-0.58849758 0.014586471 0.61709237 8.4852756e-39
-0.36623266 -0.17250624 0.79774439 9.2217728e-39
0.1199287 0.0060560773 0.44348934 1.5393414e-38
-0.26237178 0.25291541 0.39378238 9.7474994e-39
-0.64521742 0.019617332 0.55794215 1.0323782e-38
-1.4318218 0.22376515 -0.49086291 1.3449018e-38
-0.9017027 0.57727969 -0.11219663 9.210505e-39
-0.86071432 0.046998709 0.25950763 8.020626e-39
-1.1995145 0.45647159 -0.30339107 1.0686019e-38
-1.5745668 0.23097298 -0.70463479 1.4551386e-38
-0.63861918 -0.021962799 0.5576334 1.3370905e-38
-1.4875883 0.2808342 -0.55224508 1.4553548e-38
-0.53371346 0.4035902 -0.066939145 1.361505e-38
-0.59919655 -0.064113237 0.57702076 9.4079423e-39
-1.2833822 0.073299319 -0.31702411 1.1425402e-38
-1.1476508 0.5872494 -0.7595557 5.9837336e-39
-0.42238629 0.35387492 0.09362343 1.352139e-38
-1.703655 0.21562847 -0.90079933 1.3264588e-38
-0.472368 0.41483065 -0.094796889 1.3796176e-38
-1.260721 0.51261771 -0.41125071 9.6751517e-39
-1.1192375 0.60019565 -0.80425513 1.5185234e-38
-1.4465833 0.2342148 -0.50782174 1.3263908e-38
-1.5095658 0.18194522 -0.63498229 1.4187264e-38
-0.30022761 0.32056448 0.22145957 1.1037538e-38
-0.0018814966 -0.059020422 0.52605772 1.4381069e-38
-1.3039547 0.34080982 -0.80758756 1.3068694e-38
-0.39084792 -0.24181576 0.77705139 5.7370659e-39
-0.79879785 0.10416757 0.40180394 9.7698795e-39
-1.1837019 0.30405009 -0.72660083 2.3324027e-38
-1.5083745 0.20391291 -0.62172365 1.3908194e-38
-1.3696204 0.11376702 -0.44020081 1.2713971e-38
-1.195496 0.34990573 -0.7413317 1.7971288e-38
-1.19821 0.55137116 -0.28872189 9.766253e-39
-0.87214518 0.18519239 0.076414719 9.6772985e-39
-0.47408634 -0.1222823 0.73260063 1.1344748e-38
-1.3474617 0.31238735 -0.32306516 1.5662729e-38
-0.58394557 0.32303935 0.11758575 1.7799164e-38
-0.46441254 0.35496837 0.092623338 9.9355284e-39
-0.5761317 -0.049686119 0.62186444 1.1164719e-38
-1.2470623 0.60327989 -0.37695384 1.1712413e-38
-1.2916465 0.35791883 -0.83628702 1.3459826e-38
-1.1588372 0.64839774 -0.97589236 1.3708676e-38
-0.59580785 0.42322025 -0.10486493 1.1029945e-38
-1.1269158 0.37830904 -0.69674289 1.4289967e-38
-1.3362678 0.093619071 -0.39342543 1.2344112e-38
-0.55139548 0.39186266 -0.019048231 1.2880674e-38
-0.34457651 0.33123675 0.17229305 1.1036443e-38
-0.65479285 0.015846632 0.54357225 9.4036235e-39
-0.67185259 0.3097063 0.043910969 1.632804e-38
-0.61935639 0.44979957 -0.19764234 1.2414687e-38
-1.0302975 0.13650228 0.071066462 1.4009397e-38
-1.4275557 0.29036364 -0.45525485 1.520577e-38
-0.97736561 0.13931394 0.15311363 1.2445694e-38
-1.2396003 0.6177516 -0.86830443 1.2328255e-38
-0.52131277 0.19059327 0.34167612 1.9632281e-38
-1.3095797 0.2967371 -0.28090674 1.5388716e-38
-1.2216957 0.61102736 -0.85188359 1.3062223e-38
-0.3405892 0.17106885 0.46293986 2.1563046e-38
-0.42045957 0.30417529 0.23485303 1.0578038e-38
-0.12674983 0.20354143 0.50984573 1.1946182e-39
-1.1798528 0.54019034 -0.26432398 8.5687663e-39
-1.3381367 0.12956773 -0.38332582 1.1610498e-38
-1.0125095 0.55415726 -0.073219486 1.0135363e-38
-0.39878669 -0.19515345 0.7920804 8.5872032e-39
-0.4127416 -0.19985525 0.77567625 7.7577943e-39
-0.86207467 0.35231921 0.058820561 1.0940289e-38
-0.52340883 0.25524485 0.37280056 9.749691e-39
-1.2326928 0.5173232 -0.53660077 6.9016808e-39
-1.1761966 0.53609955 -0.26275018 5.9869524e-39
-0.47493041 0.18255579 0.39456794 9.4976367e-39
-1.6037163 0.32929391 -0.70980245 1.5287857e-38
-0.40198028 0.26650724 0.29998377 3.0468096e-39
-1.4263911 0.18360181 -0.49769989 1.1238076e-38
-0.71992272 0.40249687 -0.078864634 1.1038944e-38
-0.61627084 0.16745591 0.42966858 1.0507447e-38
-0.56547415 0.40806168 -0.05673217 9.4709489e-39
-1.0562311 0.20354727 0.066101149 1.4281274e-38
-0.64765519 0.46082813 -0.23733771 1.6128435e-38
-0.23818949 0.24416178 0.41573691 1.0300009e-38
-0.053867012 0.19896321 0.53992879 7.6328195e-39
-1.3035942 0.15178794 -0.32662177 1.3912498e-38
-0.47632217 0.17607459 0.37152603 9.5912938e-39
-0.50687057 0.21367702 0.37290466 1.8623579e-38
-0.077841096 -0.1939666 0.55051696 1.0052956e-38
-0.0044740355 -0.050770257 0.5306319 1.4747691e-38
-1.6642644 0.31028897 -0.80290794 1.4002503e-38
-1.2451428 0.61605483 -0.87360388 1.2786718e-38
-1.1401225 0.32868913 -0.71127284 1.9544006e-38
-1.3241221 0.24325632 -0.32186881 1.3545848e-38
-0.47028905 0.35640454 0.088122591 1.020746e-38
-0.77110714 -0.030257473 0.38469425 9.0319501e-39
-0.68898261 0.38855204 -0.016445015 1.1122532e-38
-1.2933167 0.14833666 -0.30529708 1.1884939e-38
-0.49501097 0.18683395 0.35450929 1.8443094e-38
-0.50264049 0.3018629 0.027711514 2.2588661e-38
-1.1186544 0.047588103 -0.092991196 1.2342654e-38
-0.52799797 0.39131439 -0.015546664 1.2509037e-38
-0.6039955 -0.12076283 0.54397523 1.1346213e-38
-0.87560081 -0.0075282161 0.23778364 8.7654442e-39
-0.36824951 0.30844563 0.22140557 1.1313794e-38
-0.52820438 0.21762083 0.3480022 1.4570913e-38
-0.9164744 0.13582136 0.22844158 1.2807579e-38
-1.5160453 0.20155904 -0.63036871 1.0038499e-38
-1.3109407 0.42381898 -0.26312789 1.0211368e-38
-0.43093801 0.2957131 0.24149069 7.9057966e-39
-0.56409645 0.41155323 -0.10314886 1.3336314e-38
-1.3696089 0.29071701 -0.36457279 1.6218438e-38
-1.0691559 0.48135641 -0.76017553 1.2933004e-39
-0.96273792 0.047395635 0.12896281 1.2998509e-38
-1.613023 0.16959243 -0.78742319 1.3170251e-38
-1.5122977 0.15776172 -0.64419216 1.3910686e-38
-1.0813439 0.59194028 -0.78280014 1.3526436e-38
-1.0390052 0.63084519 -0.88197237 1.2789978e-38
-0.86593628 -0.0044880556 0.24567029 9.3095978e-39
-1.5463425 0.29791838 -0.63574475 1.556698e-38
-1.3101811 0.24097794 -0.29076073 1.4744078e-38
-0.99558741 0.14677435 0.11985438 1.45633e-38
-0.49036148 0.40728593 -0.06843736 1.3797262e-38
-0.70897925 0.02868082 0.47255671 1.3375576e-38
-0.2982119 0.26905283 0.30163965 8.2814413e-39
-0.33951285 0.17806351 0.45737591 2.248807e-38
0.057761662 -0.075043835 0.47424734 1.6128102e-38
-0.019389154 0.0046157339 0.56378037 1.1987268e-38
-0.63988942 -0.042377185 0.53878444 1.2454005e-38
-0.57105821 -0.14420715 0.5924564 1.024094e-38
-1.2603573 0.51865363 -0.40840727 8.5749152e-39
-0.91292369 0.27030805 0.2520313 6.4385559e-39
-1.1443672 0.32267082 -0.7041679 1.4750212e-38
-1.0509491 0.57563317 -0.69273454 1.2699201e-38
-1.2631865 0.15514337 -0.26008299 1.3174914e-38
-1.1236199 0.21091016 -0.033297554 1.5388684e-38
-0.47900504 0.19489925 0.41044629 1.3933475e-38
-1.4783604 0.18115295 -0.58897209 9.395262e-39
-1.1045728 0.54590011 -0.60668802 1.0320853e-38
-1.3215559 0.10815394 -0.35900259 1.1793095e-38
-1.045951 0.14856084 0.046290778 1.105695e-38
-1.4395654 0.2746087 -0.48247623 1.4280907e-38
-0.41384044 -0.050695922 0.82627237 1.0338581e-38
-0.57832867 0.40027499 -0.054660667 1.3152959e-38
-0.58614916 0.29871914 0.1180221 2.2587907e-38
-0.5669353 0.22989418 0.34503293 1.6130661e-38
-1.4816233 0.13676347 -0.59388763 1.3451526e-38
-1.3005342 0.33262393 -0.86692017 8.2172927e-39
-1.3334314 0.37449083 -0.31113005 9.5695919e-39
-0.13596997 0.066357262 0.65010381 6.5257517e-39
-0.4546555 -0.16023564 0.73403484 9.5991831e-39
-1.3342159 0.27787146 -0.31630954 1.6034073e-38
-1.2913729 0.52071387 -0.56817251 1.0852409e-38
-0.70944482 0.39966413 -0.061998807 1.0480746e-38
-1.131343 0.53106552 -0.81242645 1.1960564e-38
0.11048254 -0.098063104 0.42376232 1.5667121e-38
-0.27878046 -0.16311321 0.73436463 8.5727867e-39
-0.52920198 0.30508682 0.012927834 2.1296117e-38
-1.2298073 0.19410367 -0.19501865 1.225079e-38
-0.50269651 -0.12806314 0.67516065 1.0148066e-38
-1.3387961 0.091271639 -0.40403348 1.2899419e-38
-0.66307431 0.38614047 -0.01311136 1.2229944e-38
0.17162536 0.098818362 0.42858046 1.4377837e-38
-1.2601606 0.50843239 -0.40693149 1.0605734e-38
-1.318195 0.13348861 -0.3531087 1.307915e-38
-1.1711195 0.45077005 -0.2639412 6.6323176e-39
-0.72514188 0.434984 -0.17052318 9.7665612e-39
-0.20241632 0.27068907 0.33402789 1.0674513e-38
-0.54167295 -0.10747267 0.63735759 9.9712097e-39
-0.339733 0.2556898 0.36782223 1.1224492e-38
-0.31977057 0.26503432 0.33096749 1.0211078e-38
-1.1990045 0.59846884 -0.31098783 1.9912476e-38
-1.0608746 0.4308714 -0.11225381 6.825701e-39
-0.26138645 -0.036097284 0.75080913 8.9422923e-39
-1.2487234 0.20245956 -0.21659788 1.3363996e-38
-0.29267022 0.242283 0.41451153 1.0209557e-38
-0.82802713 0.12584995 0.34751257 1.3643839e-38
-1.1573242 0.61773276 -0.31101671 1.3733168e-38
-1.0483841 0.42938653 -0.090474121 6.6359203e-39
-0.47884572 -0.1625382 0.70204854 9.875047e-39
-0.5167436 0.32407025 0.031978995 1.8157867e-38
-0.65623528 0.061688691 0.55362833 5.6319012e-39
-0.4595657 0.22003366 0.45348752 1.030357e-38
-0.5339005 0.2628077 0.11858609 2.2036185e-38
-0.98124337 0.45757094 -0.031373926 5.0678702e-39
-0.80237859 0.021795275 0.34129384 1.1800325e-38
-1.0257109 0.14552301 0.089009225 1.3636614e-38
-0.99400276 0.10766679 0.097028814 1.2719754e-38
-0.4881449 0.39020282 -0.0098431585 1.3064713e-38
-1.5249316 0.2125106 -0.63975126 1.3542286e-38
-1.3114146 0.15606669 -0.33194798 1.2439179e-38
-0.24917667 0.23598237 0.40492141 9.7543966e-39
-1.3309679 0.20637478 -0.34298357 1.2717942e-38
-0.73115492 0.083054863 0.47061613 1.1056992e-38
-0.55290484 -0.17174329 0.59423727 8.8594699e-39
-0.95715004 0.018609904 0.12740315 1.2446776e-38
-0.69953352 -0.012895901 0.4856548 1.0697232e-38
-0.66957968 0.0075298739 0.52197051 1.1248628e-38
-1.1917244 0.59276855 -0.30391982 1.8441644e-38
-1.3879032 0.39446938 -0.39147457 8.8298857e-39
-0.81211376 0.36864233 0.039008345 9.471658e-39
-1.2298663 0.3020857 -0.18307114 1.2330423e-38
-1.3926269 0.13487144 -0.46120286 1.3449374e-38
-0.90774012 0.08321251 0.2139031 1.327436e-38
-0.98925209 0.41864389 -0.046609137 1.3175989e-38
-0.48368797 0.16569677 0.37128019 1.9365423e-38
-1.4372451 0.13021164 -0.53343856 1.3267847e-38
-0.65384746 -0.0037665435 0.52979296 5.9945362e-39
-1.1391319 0.62639207 -0.89911932 1.2881082e-38
-1.334363 0.052231293 -0.41379362 1.289762e-38
-0.50407767 0.27096456 0.10956585 1.078152e-38
-0.49043971 0.38318035 0.025873998 1.2142798e-38
-1.3479068 0.20185848 -0.36992916 1.335858e-38
-0.90449309 0.1834189 0.2422213 6.2617274e-39
-0.91049153 0.097050861 0.22143205 1.1700153e-38
-0.30763078 0.30413869 0.2396825 1.0852757e-38
-0.13224056 0.23288365 0.42598379 1.0021225e-38
-1.2848244 0.079688765 -0.31855202 1.1790944e-38
-0.48215613 0.42458847 -0.11648856 1.3244059e-38
-0.51826328 -0.088283658 0.67114145 1.1161817e-38
-1.1503338 0.46369091 -0.68818289 1.5021754e-38
-0.71144497 0.38336742 -0.0050102952 1.1220093e-38
-1.1645753 0.30534455 -0.68780506 1.3643136e-38
-0.4355092 0.32390952 0.17651726 1.2141308e-38
-1.5368923 0.17143075 -0.67635125 1.3725583e-38
-0.36104947 0.16108529 0.62838757 6.897746e-39
-1.1267802 0.34336618 -0.70873845 2.1112061e-38
-1.3978289 0.14024213 -0.4777357 1.4095441e-38
-0.35222143 0.1956045 0.45847508 1.8986809e-38
0.011752599 0.032845248 0.54810506 1.2628698e-38
-1.3364692 0.23454452 -0.34032977 1.3822114e-38
-0.29743415 0.3348915 0.16936919 1.0670163e-38
-0.21279669 0.23802489 0.40830657 9.2887367e-39
-0.20481147 0.25728586 0.35141444 9.1972543e-39
-1.3160248 0.2233468 -0.31180942 1.3635555e-38
-0.93325096 0.12851334 0.20141657 1.4012294e-38
-1.313925 0.38292831 -0.28476605 1.048975e-38
-1.1659925 0.646918 -0.41169545 9.9524197e-39
-0.67643136 0.31433257 0.032615233 1.6781091e-38
-1.4459662 0.18671004 -0.52701414 1.3724864e-38
-1.2514261 0.57912415 -0.36739707 6.2682294e-39
-1.279169 0.11730251 -0.2939198 1.1703062e-38
-0.85079587 0.24541953 0.10976116 2.3924845e-39
-0.017528974 -0.14575648 0.51642036 1.2538624e-38
-0.59735322 -0.14614719 0.53290588 7.0998216e-39
-0.19870274 0.23046339 0.4308033 1.1504316e-38
-0.48026654 0.3371084 0.143104 1.0298197e-38
-0.38820747 0.26043504 0.32657561 3.8765899e-39
-1.1214588 0.39624545 -0.7077806 1.8256535e-38
-0.48148224 0.20790671 0.40062109 1.9089925e-38
0.042808954 -0.17023747 0.45693579 1.2814457e-38
-1.3053485 0.020559931 -0.37552148 1.0319406e-38
-1.2689286 0.21855578 -0.23944111 1.3177844e-38
-0.30003002 0.17188065 0.60248339 8.277826e-39
-0.69797921 0.014607055 0.47812402 1.1339715e-38
-0.81580234 0.071581431 0.35901517 9.6755189e-39
-1.1953311 0.32663018 -0.12861423 9.9293543e-39
-1.2391698 0.66314131 -1.0410753 1.1777958e-38
-0.66424674 0.44792235 -0.2030814 1.0779313e-38
-1.0932626 0.60403019 -0.55409151 3.9640618e-39
-0.59798038 0.29579008 0.10263784 2.065108e-38
-1.8494873 0.31241056 -1.0906138 1.0131029e-38
-1.3119134 0.35337839 -0.29744536 1.0487585e-38
-0.0014895932 0.086737745 0.55752504 1.1964536e-38
-0.26769343 0.044861317 0.75394422 2.6632294e-39
-0.50688881 0.20126285 0.36152476 1.7989326e-38
0.061696257 0.022119397 0.49395666 1.4564746e-38
-0.43948361 0.094725929 0.79816109 5.2512651e-39
-1.3670907 0.21025224 -0.40125507 1.1605436e-38
-0.5901494 -0.12515105 0.57426172 9.6802286e-39
-0.44883525 -0.19086598 0.7380085 7.7595936e-39
-1.4677962 0.20733328 -0.55120486 1.4002898e-38
-0.28070617 0.080648191 0.77870226 2.2040533e-39
-1.3505908 0.18588367 -0.37996852 1.2898326e-38
-1.0429831 0.23528424 0.067314379 1.0119876e-38
-1.2986356 0.31339914 -0.25135934 1.5473725e-38
-1.1531768 0.30170628 -0.70397729 2.2955971e-38
-1.4392549 0.096131168 -0.55592591 1.2621759e-38
-0.37769395 0.18499358 0.45966434 0
-0.25894469 0.23122686 0.4497076 9.0139028e-39
-1.8127762 0.27248055 -1.0501498 1.0961862e-38
-1.3390447 0.28164127 -0.32335061 1.7692518e-38
-1.2927076 0.13726275 -0.3226895 1.1701951e-38
-0.25203383 0.22933272 0.45300913 1.1868722e-38
-0.30464602 0.18430738 0.46244282 2.2486243e-38
-1.5988384 0.19996862 -0.75367075 1.390781e-38
-0.49269062 0.2038423 0.38049072 1.8997011e-38
-0.37329048 0.30026338 0.25201422 1.0115583e-38
-0.81084484 0.40285832 -0.078557439 8.742327e-39
-0.49704632 -0.1490342 0.68479389 1.0426407e-38
-0.6645509 0.18290552 0.22707458 1.2267432e-38
-1.3231939 0.082069963 -0.3766025 1.2070049e-38
-1.3538724 0.15915722 -0.39596224 1.2436311e-38
-1.1577801 0.52634519 -0.23209962 8.5716194e-39
-0.94535577 0.11708891 0.18745752 1.2256572e-38
-1.2909888 0.19181769 -0.2857224 1.2435212e-38
-1.3528104 0.65195554 -1.0219463 5.2356995e-39
-0.25847653 0.14424329 0.67425328 8.8324473e-39
-1.1695001 0.62987626 -0.90534943 1.3157293e-38
-1.0674421 0.54932541 -0.12793113 1.6593376e-38
-1.4194431 0.20421354 -0.47939563 1.3264261e-38
-1.2410061 0.29538041 -0.16936305 1.5015563e-38
-1.4727178 0.262786 -0.53946507 1.3635908e-38
-1.3749003 0.12837353 -0.44321012 1.2806888e-38
-0.66672421 -0.029182132 0.50367981 1.2452559e-38
-0.49735275 0.29124424 0.020143561 2.2775202e-38
0.047275119 -0.12855515 0.47299999 1.5759675e-38
0.066186219 -0.093968086 0.46599999 1.6219941e-38
-1.0662045 0.55113477 -0.63946128 9.5858092e-39
-1.3534801 0.06665574 -0.43471751 1.2439908e-38
-0.73604029 0.13998486 0.43703184 7.5517824e-39
0.12087508 -0.094269194 0.41734254 1.5299783e-38
-0.31276411 0.26886627 0.32566112 1.0029892e-38
-1.3902216 0.25271109 -0.41939056 1.4003602e-38
-0.59820217 0.31072381 0.21051899 8.0944969e-39
-1.5190084 0.21882722 -0.63012964 1.344504e-38
-1.278878 0.24140728 -0.24749945 1.5941155e-38
-0.33539206 0.37152854 0.042411391 1.121937e-38
-1.3117354 0.40259224 -0.79756176 1.3549141e-38
-1.1491493 0.31341633 -0.71433562 2.2031121e-38
-1.1323811 0.333289 -0.72661632 2.1759594e-38
-0.0017011074 0.13628502 0.5602079 6.5307935e-39
-1.74637 0.23609924 -0.9522804 1.2160055e-38
-1.0899584 0.59547031 -0.79228431 1.4076748e-38
-1.555916 0.29488403 -0.65067619 1.5381498e-38
-0.57768375 -0.084504381 0.6034646 1.2175952e-38
-0.15534158 0.034132097 0.68831408 6.6276905e-39
-1.230462 0.48561227 -0.35069853 8.3872786e-39
-0.99613619 0.082406417 0.091253191 9.1190633e-39
-0.58993232 0.31786847 0.12355953 2.0562149e-38
-0.65008265 0.47097179 -0.26705128 1.5115369e-38
-1.4746574 0.2826657 -0.53228617 1.4283779e-38
-1.0731281 0.21632339 0.041765172 1.4556055e-38
-0.35435396 0.372866 0.03258739 1.3243002e-38
-0.64722741 0.44018167 -0.18413505 1.1679276e-38
-0.87189603 0.17230909 0.071296491 1.5944431e-38
-0.85049307 0.015719727 0.27164647 1.2080867e-38
-1.1660773 0.46010062 -0.25310105 7.0003785e-39
-1.3673398 0.1002293 -0.44414759 1.2070405e-38
-1.4153287 0.31459537 -0.4316082 1.6861684e-38
-0.67999238 0.43687838 -0.17067187 1.0767397e-38
0.14300558 0.029187189 0.43121672 1.4840963e-38
-1.1637383 0.57693225 -0.24932466 1.7144029e-38
-1.472236 0.179232 -0.57028747 1.4096166e-38
0.11617906 -0.028848795 0.4385502 1.5209382e-38
-0.5843358 -0.090393737 0.5786351 7.3796357e-39
-0.38070321 0.37606308 0.032011136 1.2783456e-38
-0.57089955 0.381971 0.0065531493 1.2784898e-38
-0.30882391 -0.16668975 0.75632244 8.7582541e-39
-1.5137273 0.12997594 -0.6547215 1.3635541e-38
-1.1305236 0.4765375 -0.19082384 8.2039817e-39
0.012892315 -0.017184714 0.52875036 1.3643894e-38
-0.53638721 -0.14789224 0.63254106 1.1530583e-38
-0.30678937 0.23258296 0.43240991 1.0667984e-38
-0.47440073 -0.062910542 0.7388224 1.0980362e-38
-1.4329342 0.066338979 -0.5531767 1.2529578e-38
-1.3499373 0.26132625 -0.35033143 1.529435e-38
-0.80849522 -0.011891378 0.31855506 1.3739667e-38
-0.31867537 0.34689069 0.14217542 1.1223706e-38
-0.56747121 0.38743922 -0.0017529966 1.2872424e-38
0.073843323 -0.14334491 0.44537771 1.4286001e-38
-0.20660374 -0.2197037 0.64656961 7.4678811e-39
-1.0009838 0.02250747 0.064769052 1.1987574e-38
-1.1307889 0.5437628 -0.79463112 1.2620294e-38
-1.0541112 0.18659407 0.03398804 1.4100835e-38
-0.40404406 0.26707238 0.30325118 0
-0.34168014 0.2863633 0.30095646 1.0945369e-38
-0.49256533 0.29825616 0.24094899 1.0853183e-38
-0.89189845 -0.011068841 0.20178121 1.2542574e-38
-0.55186021 0.28954712 0.13156706 2.2493531e-38
0.031009443 -0.16473019 0.47358927 1.3643504e-38
-0.56736094 0.0027913551 0.66253036 1.2452175e-38
-1.0938888 0.62684202 -0.33912683 8.6634773e-39
-0.45365068 0.22448452 0.44211689 9.0182777e-39
-0.55814403 0.45061794 -0.18134637 1.2876365e-38
-0.28604132 0.21843424 0.48169842 8.5507709e-39
-0.67523211 0.3228713 -0.0071164626 1.7151656e-38
-1.3400352 0.068210423 -0.40907913 1.2158282e-38
-0.33981159 0.17850742 0.46015397 1.9626256e-38
-0.90901911 0.0091382274 0.18898584 1.1805722e-38
-0.37430006 0.27396938 0.31032312 7.8219037e-39
-0.6056689 0.41450363 -0.081320859 1.1219737e-38
-1.6679906 0.2799744 -0.83448285 1.3171305e-38
-1.4051881 0.3989228 -0.40851375 7.7163341e-39
-0.69549435 0.39932668 -0.060702778 1.1677474e-38
-1.5754586 0.25158638 -0.70143145 1.4276589e-38
-0.55799979 0.20206399 0.33047906 1.586269e-38
-1.4483478 0.17091158 -0.5372622 1.3635911e-38
-1.2986348 0.23498684 -0.28029147 1.1696149e-38
-0.59790695 0.076303676 0.60237861 5.6236027e-39
-1.2109185 0.47702929 -0.31679639 1.0411266e-38
-1.3942835 0.12582485 -0.47634378 1.3176733e-38
-0.57483083 -0.0041459464 0.64501393 1.0978897e-38
-1.4014391 0.15036543 -0.48079243 1.3174582e-38
-0.67223167 0.10975888 0.5219667 6.3536077e-39
-0.39144391 0.33680388 0.15316692 9.7457464e-39
-0.49540657 0.40940386 -0.059736848 1.287637e-38
-0.11268269 -0.03153158 0.63640463 1.299818e-38
0.16539715 -0.03280028 0.398 1.5205795e-38
-1.3755283 0.059757672 -0.46906316 1.1883487e-38
-1.089666 0.55040741 -0.15075628 1.392008e-38
-1.1859126 0.51348191 -0.55752319 1.1334652e-38
-1.4127659 0.43043211 -0.89938676 1.0117418e-38
-0.31029263 0.11991389 0.78020161 2.2969776e-39
-0.68333298 0.34036431 0.055887092 1.3549886e-38
-0.68357545 0.24657318 0.374818 3.6741373e-39
-1.3671013 0.10351937 -0.43394056 1.299128e-38
-0.34588057 0.24157684 0.41300341 1.0209206e-38
-0.66772366 0.42870596 -0.13127518 1.1865077e-38
-1.2073827 0.36119187 -0.13579813 9.2022738e-39
-1.4074125 0.33730119 -0.4089936 1.6679092e-38
-1.244041 0.17560494 -0.22439496 1.169797e-38
-1.0785104 0.17274113 0.0099870097 1.6495397e-38
-1.3358663 0.48107618 -0.83803844 7.8996688e-39
-0.21218713 0.19176303 0.46639332 0
-0.11755998 0.091783673 0.64308214 8.091983e-39
-1.1521437 0.65161103 -0.46663427 3.4129983e-39
-1.3053477 0.082235269 -0.35526353 1.3082381e-38
-0.7056008 0.048265651 0.49732682 1.1247531e-38
-0.50882626 0.12166862 0.73117918 3.9521647e-39
-1.3240401 0.28198192 -0.29770896 1.5850774e-38
-0.43903038 0.44932979 -0.09496922 8.8356394e-39
-1.3061938 0.071473002 -0.3538813 1.169804e-38
-1.3147426 0.25925368 -0.30061722 1.639998e-38
-1.2229863 0.21005267 -0.18642224 1.5112816e-38
-1.1418134 0.64200354 -0.9563747 1.3066895e-38
-0.97729349 0.23574202 0.13191807 8.0959066e-39
-1.3427559 0.097607277 -0.40120021 1.261926e-38
-0.93529654 0.01858538 0.15450878 1.170558e-38
-1.4574569 0.26531351 -0.50865996 1.44628e-38
-1.1357036 0.48342928 -0.82337385 1.1134346e-38
-1.1517705 0.49476591 -0.22047499 5.7135955e-39
-1.6203996 0.54355103 -1.0098151 1.2440642e-38
-0.30416533 0.28470382 0.2972416 9.7453512e-39
-0.57645339 0.23769072 0.34437236 1.7791962e-38
-0.45294833 0.25022206 0.23003715 6.2610436e-39
-1.0511454 0.30050242 0.057511352 6.6164675e-39
-0.71916658 0.11501302 0.45953014 8.8389283e-39
-0.14192142 0.21192025 0.49227163 1.0030988e-38
-0.72348714 -0.095477246 0.40824595 1.1252215e-38
-1.124364 0.62377179 -0.8780126 1.3615774e-38
-1.4135876 0.13572064 -0.49796474 1.3544794e-38
-0.65018481 0.42706311 -0.131263 1.2412894e-38
-0.54384053 -0.037865471 0.64812714 9.2192519e-39
-0.0061616693 -0.19629318 0.50199997 1.4561129e-38
-0.81697839 -0.017948119 0.3071059 1.3003562e-38
-1.1875334 0.34343401 -0.65180981 1.2625391e-38
-1.3635935 0.16468665 -0.41085759 1.3542286e-38
-0.072268091 0.19172525 0.55901122 8.4647508e-39
-1.0267798 0.14048679 0.073613457 1.5021386e-38
-1.2859681 0.42218047 -0.23030378 1.0573311e-38
-1.3144315 0.13128157 -0.34111241 1.2160813e-38
-0.56238836 -0.077020496 0.61175734 8.5753258e-39
-1.3033987 0.14650036 -0.32968438 1.1611948e-38
-0.4594022 0.15392052 0.39470515 1.4109601e-38
-0.55672914 0.42522785 -0.13031884 1.2511205e-38
-1.3174016 0.13555126 -0.35074288 1.2253364e-38
-0.92265546 0.0388899 0.18582791 1.2814837e-38
-1.4130585 0.049491581 -0.53254777 1.1794539e-38
-1.4882023 0.26958019 -0.55453539 1.2339411e-38
-1.4729184 0.12444976 -0.59606457 1.4090757e-38
-0.52818286 0.21771364 0.35872093 1.7703747e-38
-1.1839255 0.32514355 -0.66360545 1.2998138e-38
-1.8310694 0.43841007 -1.1793798 1.1938867e-39
-1.1268309 0.36348063 -0.72647786 1.7600711e-38
-0.44690463 -0.20293762 0.72896606 1.0152755e-38
0.14040928 -0.15243931 0.38689226 1.4191638e-38
0.056791116 -0.018350311 0.4943876 1.5485976e-38
-0.73173136 -0.015382874 0.43091285 1.3373421e-38
-1.1486084 0.44459787 -0.22189952 1.2070358e-38
-1.2804285 0.078623369 -0.31096017 1.1517231e-38
-1.2909025 0.25764996 -0.25304833 1.5204685e-38
-0.70310909 -0.048117161 0.45967108 1.1899022e-38
-1.3369235 0.13084386 -0.37778202 1.1703062e-38
-0.6660524 0.26469779 0.022700042 1.696868e-38
-0.76604056 0.070583813 0.42252257 1.0231219e-38
-1.2215991 0.60604668 -0.84735119 1.315729e-38
-0.30878896 -0.11958538 0.76626062 8.8526204e-39
-1.4705846 0.21749268 -0.55713999 1.381888e-38
0.16830464 0.16252106 0.44606751 1.1983634e-38
-0.83442885 0.021651762 0.29985151 1.0968744e-38
-1.3122959 0.10095655 -0.35744932 1.3450443e-38
-1.375361 0.081736006 -0.46538627 1.2161519e-38
-1.1295316 0.48152578 -0.81276685 1.7590907e-38
-1.0318516 0.57590079 -0.68430507 1.18673e-38
-0.63751978 0.42442861 -0.10053995 9.9286761e-39
-0.24905136 0.023439558 0.73609394 4.6922283e-39
-0.58420968 0.062263571 0.60507137 5.2447463e-39
-0.4812898 0.23266372 0.4291926 7.9990516e-39
-0.68624562 0.097939752 0.49595037 6.7205924e-39
-1.2581055 0.48187718 -0.39432824 9.9629238e-39
-0.44371867 0.24373335 0.40522775 9.2022738e-39
-1.3259825 0.139833 -0.36227059 1.3450428e-38
-0.92436498 -0.0013572035 0.15716304 8.6667591e-39
-1.3362015 0.25184166 -0.32912827 1.4927e-38
-0.093881682 0.1773037 0.58197147 5.3347489e-39
-1.5613412 0.33983403 -0.64168566 1.8241691e-38
-1.4242299 0.28420433 -0.45227504 1.5385833e-38
-0.54916304 0.39753744 -0.03031591 1.094175e-38
-1.0877876 0.58997983 -0.75805873 1.352752e-38
-0.53921139 0.40975335 -0.074817777 1.2965693e-38
-1.1626631 0.46367079 -0.24628675 5.5299399e-39
-0.24316636 -0.10349549 0.72083914 8.0181654e-39
-0.65884316 0.016170483 0.54296559 1.2637654e-38
0.065567724 0.011193448 0.49053502 1.5763638e-38
-1.2698417 0.64763844 -0.98441261 1.2603416e-38
-0.93713474 0.090685703 0.18790369 1.1426105e-38
-1.4254898 0.45536205 -0.41416639 9.008512e-39
-0.48001453 0.43206495 -0.13469525 1.3242639e-38
-0.67547929 0.43096939 -0.14364217 1.1031405e-38
-1.3369536 0.40097642 -0.31708387 1.0858192e-38
-0.53627998 0.41329515 -0.083975621 1.287458e-38
-0.83503699 -0.021512561 0.28158703 1.2820603e-38
-0.45075423 0.34349632 0.12788256 1.1774358e-38
-0.010234193 -0.018104857 0.55100733 1.1985114e-38
-0.61416751 0.39461133 -0.037022881 1.3249856e-38
-0.52897787 0.39112899 0.012086557 9.3837713e-39
-0.58788645 0.29215413 0.12267383 1.9730231e-38
-0.22901851 0.23537062 0.42656103 1.1680686e-38
-1.2105476 0.64881384 -0.96507519 1.2143161e-38
-0.20919968 0.23567626 0.43189952 8.6393596e-39
-1.0339056 0.10030971 0.048478749 1.3638775e-38
-0.71399558 0.43970942 -0.19085814 1.8062027e-38
-0.58770233 0.40278539 -0.042913001 1.1307645e-38
-0.41986749 -0.1335181 0.79000807 9.1331505e-39
-0.82327199 0.010885902 0.30619305 1.290883e-38
-0.37690285 0.29461721 0.27170622 9.9322886e-39
-0.51492536 0.20199588 0.35727099 1.8718969e-38
-1.3830788 0.17030606 -0.43497172 1.3359341e-38
-1.0306648 0.20808691 0.10638736 1.4832987e-38
-0.54833305 0.32856381 0.18390375 5.9808413e-39
-0.49755952 0.16813359 0.34796146 2.0743661e-38
-0.12827541 0.23416501 0.44109717 9.3852357e-39
-1.3063688 0.39401364 -0.81020975 1.364312e-38
-1.3055545 0.4415693 -0.79019099 1.4471467e-38
-0.33017832 0.3258689 0.20352571 1.1870183e-38
-0.31263721 0.33023572 0.16685039 1.1677111e-38
0.15810625 -0.016454497 0.40799999 1.50232e-38
-0.49355018 0.22523963 0.38010979 1.6411214e-38
-1.4323505 0.12603649 -0.53433359 1.3269634e-38
-1.2798793 0.14645812 -0.28175619 1.1978575e-38
-0.56529009 0.28952926 0.12777458 2.3508054e-38
-0.200369 0.12078986 0.71788669 5.7874299e-39
-1.3566786 0.59973043 -0.99447083 1.9302435e-38
-1.4043216 0.11753111 -0.49154958 1.2715772e-38
0.12112292 -0.013885441 0.43634486 1.3184694e-38
0.10745703 -0.086987182 0.42682222 1.3642064e-38
-0.59799486 0.41136706 -0.071089551 9.7431722e-39
-1.0578942 0.57318133 -0.67470658 1.002985e-38
-0.60901278 -0.027682723 0.57844323 8.9426608e-39
-0.60649365 0.39219344 -0.011949654 9.9254082e-39
-1.0934463 0.61608559 -0.28960243 1.1978923e-38
-1.3978426 0.20308894 -0.45046279 1.3634839e-38
-0.55426788 0.33321992 0.024922727 1.5756455e-38
-1.1405832 0.15937383 -0.079210371 1.3359299e-38
-0.060720731 0.20899838 0.51917028 8.1874016e-39
-1.5805174 0.22524615 -0.71994048 1.1234493e-38
-0.1522802 0.20418829 0.50241709 9.293417e-39
-0.57253057 0.2991707 0.12602712 2.1848877e-38
-0.61617893 0.43335319 -0.14796607 1.2044082e-38
-0.041684959 0.0084616188 0.58222616 1.5850439e-38
-0.59850413 -0.027528601 0.60145211 1.1896887e-38
-0.71859783 0.00042992405 0.45496193 1.2727335e-38
0.041075774 0.19928968 0.54086226 7.0846708e-39
-1.3663013 0.59021205 -0.90509844 1.7549655e-38
-1.1946801 0.066358514 -0.19270553 1.2441315e-38
0.05726644 0.026686087 0.50458384 1.2537922e-38
-1.4033967 0.27283123 -0.42109373 1.4834473e-38
-1.1843675 0.28037173 -0.095925562 1.1414976e-38
-1.0650116 0.5472092 -0.62200993 1.8064913e-38
-1.6333461 0.2387493 -0.79103994 1.381598e-38
-1.2345334 0.14921734 -0.22821799 1.2809024e-38
-1.1139309 0.54697025 -0.16602884 5.0653296e-39
-0.28766209 0.2573345 0.37377629 1.0950053e-38
-0.66631466 0.26137286 0.029803781 1.7430031e-38
-0.94818473 0.059966728 0.14534879 1.2446779e-38
-1.0793859 0.6080606 -0.82913065 1.3619719e-38
-1.1419141 0.50644475 -0.21332945 6.452248e-39
-0.58345664 0.30597562 0.11316396 2.3508751e-38
-0.018087476 0.2251973 0.46454507 9.6639932e-39
-1.1338564 0.437599 -0.68925261 1.5669289e-38
-0.49436757 0.29201332 0.039975852 2.1941131e-38
-1.1517311 0.3001616 -0.068011649 1.0668059e-38
-0.40435949 0.17402387 0.57690424 7.8172135e-39
-1.0631155 0.45175067 -0.10926667 6.6380854e-39
-0.69173455 0.07521458 0.51299745 1.1619546e-38
-0.78268343 -0.078917757 0.32811826 1.2451092e-38
-0.9718371 0.025026664 0.10473461 1.3365829e-38
-1.3134638 0.23371965 -0.30846891 1.04083e-38
-0.69301879 -0.085309774 0.44693452 9.0337494e-39
-1.4867349 0.13157852 -0.61283994 1.326855e-38
-0.48596069 -0.16845167 0.69762403 1.0338568e-38
-1.3314852 0.083978996 -0.38744652 1.225192e-38
-1.010934 0.60470229 -0.77641732 1.2883947e-38
-1.20241 0.64225566 -0.96473044 1.2419378e-38
-1.4904835 0.20620646 -0.59123582 1.3911756e-38
-0.56544954 0.12733905 0.49898016 9.0402514e-39
-0.31550965 0.17318301 0.46594593 2.1649543e-38
-1.4270616 0.17536317 -0.49917033 1.3267847e-38
-0.71053225 0.3746421 0.012092331 1.186007e-38
-1.061669 0.29105175 0.048338719 9.4738188e-39
-0.47980294 0.19467269 0.41129556 1.3006122e-38
-0.54193038 0.41141188 -0.083194643 1.3155481e-38
-0.36951172 0.35776579 0.091287896 1.1497046e-38
-1.3197074 0.065087125 -0.38406631 1.1056974e-38
-1.301615 0.24754675 -0.27616009 1.4744432e-38
-0.54302692 0.10990009 0.50962603 1.051106e-38
-1.8364143 0.44934684 -1.1728314 1.8399441e-39
-1.1961231 0.49673957 -0.29092208 9.0326382e-39
-0.47853354 -0.0049345922 0.7659694 4.0598713e-39
-1.3220055 0.11066495 -0.3609778 1.1977856e-38
-1.0039037 0.11548561 0.098539457 9.3113803e-39
-1.0170858 0.59556067 -0.75230217 1.2421896e-38
-1.1272416 0.38580889 -0.70958805 1.9082681e-38
-0.54410064 0.32385883 0.017633889 1.7049692e-38
-1.218765 0.20216881 -0.1683901 1.4283441e-38
-0.57559234 0.28687447 0.12876377 1.9547622e-38
-0.16788785 0.22718689 0.44161171 9.0167951e-39
-1.2993606 0.47631267 -0.79183286 1.3641335e-38
-0.26788959 0.26511124 0.35051155 1.0214633e-38
-1.3477288 0.35537994 -0.34523073 1.1129747e-38
-0.83837235 -0.021359298 0.26949248 1.2728758e-38
-0.30633718 0.31173503 0.22074291 1.1678585e-38
-1.3406196 0.06233941 -0.41423404 1.2162954e-38
-0.99660349 0.14875883 0.12446553 1.3820302e-38
-0.76582575 0.41307685 -0.12247294 9.9466757e-39
-0.3584978 0.28682157 0.27654028 1.0851661e-38
-0.72083831 0.37917262 0.010028557 1.0852017e-38
-1.3184063 0.012510026 -0.3956393 1.0964087e-38
-0.79151046 -0.047421914 0.34844124 8.8447142e-39
-0.24228355 0.18604489 0.56983322 9.2004787e-39
-0.54290909 -0.19321893 0.61412358 1.0884142e-38
-0.55345273 0.39543054 -0.040119782 1.3708652e-38
-0.18940198 -0.19728845 0.65477675 8.7582387e-39
-0.90936255 0.0019580764 0.18082073 1.2357458e-38
0.14529903 -0.0085637178 0.41879746 1.5023919e-38
-1.275158 0.28368852 -0.22870935 1.7047502e-38
-1.3375267 0.26810125 -0.32320547 1.621883e-38
-0.42072588 0.16700615 0.6028834 4.1433957e-39
-1.2586024 0.5258503 -0.39198115 8.7521052e-39
-0.42688742 -0.19210923 0.75706756 9.9708748e-39
-0.77303499 -0.083429731 0.33669987 9.6740419e-39
-0.68150747 -0.0076000579 0.50494915 1.0322336e-38
-1.0145009 0.58900112 -0.72749668 1.297364e-38
-1.218605 0.60494018 -0.34216404 1.8531341e-38
-0.7291674 -0.020424424 0.42596349 1.0229769e-38
-0.88184392 0.27031592 0.079534449 2.9567846e-39
-0.30005527 0.27161294 0.32167384 8.8338794e-39
-1.3615873 0.14858247 -0.41073629 1.2897639e-38
-0.99499553 0.10881851 0.11319374 1.1424302e-38
-0.31753027 -0.18478787 0.76756388 8.3880423e-39
-0.71962565 0.082155295 0.47884876 1.3833677e-38
-0.65409839 0.38110003 0.0064550424 1.2048434e-38
-0.47078526 0.14796318 0.38986549 1.6873595e-38
-0.28934216 0.3546299 0.095401332 1.2783453e-38
-0.24375607 -0.014617317 0.74758548 9.0323397e-39
-1.1050402 0.49269229 -0.16258986 5.8050456e-39
-1.3387274 0.21249305 -0.34959441 1.2529225e-38
-0.25005054 -0.14111184 0.71562535 8.7593457e-39
-1.3002155 0.31827778 -0.82509971 1.3643842e-38
-1.0201297 0.38537097 -0.050825 8.7448913e-39
-0.72993565 0.10097313 0.45989507 4.2367026e-39
-1.2805308 0.14565165 -0.29139963 9.764748e-39
-0.91019392 -0.0036056314 0.1787401 1.254042e-38
-0.33479229 0.17955747 0.45952058 2.0547475e-38
-0.95672053 0.069076374 0.14562719 1.3093579e-38
-0.24293619 0.2522614 0.3682425 1.0122833e-38
