# .PCD v0.7 - Point Cloud Data file format
VERSION 0.7
FIELDS x y z rgb
SIZE 4 4 4 4
TYPE F F F F
COUNT 1 1 1 1
WIDTH 993
HEIGHT 1
VIEWPOINT 0 0 0 1 0 0 0
POINTS 993
DATA ascii
-0.30619612 0.31868649 0.20866683 1.1493122e-38
-0.60111636 0.10627379 0.51747066 9.133896e-39
-0.3289808 0.16546258 0.46413478 2.1291318e-38
-1.1229062 0.52061468 -0.18265481 5.4359324e-39
-0.97935677 0.30613199 0.044996046 1.8339705e-38
-1.2918203 0.30036688 -0.23810011 1.4090733e-38
-0.28580931 0.17040233 0.46235904 1.9446326e-38
-0.32800061 0.25317949 0.38217586 1.085819e-38
-0.46229586 0.3412599 0.13874625 9.6560675e-39
-0.240004 -0.022369662 0.74301702 9.582645e-39
-0.34031194 0.1680934 0.44810784 2.1292776e-38
-0.72614342 0.045980264 0.46122643 1.0965169e-38
-0.43403062 -0.2080487 0.75043273 1.0060537e-38
-1.1867269 0.60165942 -0.29919794 1.6779938e-38
-0.57942134 -0.18284914 0.56452256 7.7466259e-39
-0.68321729 -0.070942529 0.46335018 1.1990862e-38
-1.1406308 0.45517796 -0.21877979 8.2000006e-39
-1.332202 0.17606112 -0.35613111 1.3173481e-38
-1.3361485 0.39057174 -0.31403151 1.232792e-38
-1.1628271 0.49561951 -0.24502839 9.0311892e-39
-1.1417004 0.5702439 -0.81863177 1.6566736e-38
-1.0737668 0.42210877 -0.12965073 6.4533382e-39
-1.4184083 0.11699825 -0.51476437 1.3727037e-38
-0.42255002 -0.13782761 0.77453077 9.3211894e-39
-0.32020858 0.17200269 0.46209949 2.2210041e-38
-1.0052882 0.62427741 -0.8379094 1.2790331e-38
-1.1666048 0.47590479 -0.252211 7.6474939e-39
-1.2349346 0.52500612 -0.58103985 1.0395765e-38
-1.1053395 0.62618315 -0.30879503 1.2536044e-38
-0.034450181 -0.029488463 0.56515479 1.4196312e-38
-1.1832484 0.29788446 -0.70766693 2.2676493e-38
-1.0243022 0.080044657 0.052788958 1.0042057e-38
-0.78330594 0.3853412 -0.029863754 9.1946955e-39
-1.3100331 0.20875424 -0.31241217 1.3634839e-38
-1.1933074 0.58519721 -0.30023 1.4652584e-38
-1.3158638 0.28291726 -0.29239157 1.6770229e-38
-1.4757174 0.069793545 -0.61777091 1.2254068e-38
-1.0185648 0.14571692 0.098229401 1.2440237e-38
-1.2635632 0.50689286 -0.41504157 1.0230823e-38
-1.4822755 0.20796141 -0.57807648 9.6704252e-39
-0.49328664 0.30700386 0.051127128 1.6410484e-38
-1.3990242 0.13733451 -0.47209069 1.1238812e-38
-0.58214045 -0.10580845 0.58500844 5.2598621e-39
-0.55121487 0.0055013099 0.6700412 1.1072186e-38
-0.92250806 0.048804015 0.1915814 9.8598709e-39
-0.98755401 0.1049734 0.12203386 1.0780014e-38
-0.65625733 0.028881736 0.55368423 1.1528454e-38
-0.67487329 0.33539903 0.00084413338 1.649907e-38
-0.29823172 0.21521822 0.48165369 9.6509779e-39
-0.53200626 0.23577258 0.35353205 1.8437681e-38
-0.45661569 0.24746324 0.23364237 5.0635668e-39
-1.1833091 0.65872544 -1.0121721 1.1502476e-38
-0.019027591 -0.12061401 0.52461624 1.3365515e-38
-0.72844476 -0.03407833 0.42028558 1.3557074e-38
-0.48270172 0.043448813 0.72861791 5.2476133e-39
-0.53463793 0.31692177 0.0195827 1.8064948e-38
-1.1824098 0.31756693 -0.74389118 1.9269215e-38
-1.0358796 0.61624604 -0.82550472 1.1409198e-38
-1.3154054 0.25834423 -0.29771623 1.6311031e-38
-0.58672923 0.28145593 0.11861231 1.9087735e-38
-0.2931653 0.22173528 0.45765793 1.1134069e-38
-0.6011076 -0.093639292 0.56889278 9.406883e-39
-0.51597255 0.13112988 0.48109052 8.1139539e-39
-0.51906943 0.20086071 0.35336864 1.2719037e-38
-1.114661 0.62726611 -0.88327765 1.3245931e-38
-0.12014673 -0.075836301 0.62015992 1.1614887e-38
-0.6533528 0.2679207 0.31325164 9.110769e-39
-1.4823668 0.11368767 -0.60418767 1.3266775e-38
-0.66799355 0.42540148 -0.12050021 1.0390349e-38
-0.65180302 0.087243237 0.54260778 6.3496211e-39
-0.27277613 0.022322113 0.75704575 2.4795878e-39
-0.85258377 -0.0026138215 0.25972071 1.1337525e-38
-0.56763995 0.41336593 -0.076602541 1.1124305e-38
-0.44376054 0.31294563 0.20778699 1.0850978e-38
-0.57916135 -0.10037786 0.58245617 8.2990935e-39
-0.39957392 -0.22619162 0.77277708 7.670307e-39
-0.56078446 0.28094161 0.30190647 9.561725e-39
-0.63948554 -0.0047633434 0.55934274 1.3280859e-38
-1.3798881 0.23168992 -0.40651491 1.3265327e-38
-0.35415816 0.19117397 0.45356199 1.6312744e-38
-0.32482061 0.26679644 0.33725458 8.8346151e-39
-0.75022519 0.13862412 0.43641862 4.9674461e-39
-1.0048473 0.079397321 0.084036008 1.3182511e-38
-1.3535923 0.30626968 -0.33852679 1.631175e-38
-1.2920867 0.41796008 -0.23598205 1.0113081e-38
-0.34979001 0.17184378 0.45246097 2.2857211e-38
-0.57174557 0.31790504 0.12617177 2.350987e-38
-1.130721 -0.0030548472 -0.11059732 9.6787237e-39
-1.1985799 0.072613426 -0.1904372 1.1888525e-38
-0.62278473 0.41446924 -0.081393041 1.0668384e-38
-0.085326351 -0.17194255 0.5709343 1.3179646e-38
0.055896897 -0.14500789 0.46200001 1.5208664e-38
-0.2034923 0.25222525 0.39692903 9.6564178e-39
-1.2880301 0.38411468 -0.84135455 9.2904519e-39
-0.47753689 0.36364686 0.0558949 1.3157296e-38
-0.52238858 0.22480352 0.35728756 1.6228639e-38
-0.41684893 -0.19323154 0.7744506 8.0311568e-39
-0.79932028 -0.054313801 0.31389728 9.950647e-39
-0.71864891 0.021483647 0.4559783 1.1149906e-38
-0.80072808 -0.061860219 0.3377184 8.2036188e-39
-1.2345573 0.49878922 -0.499273 1.0226846e-38
-1.0933273 0.2535764 0.020444479 1.1036835e-38
-0.95503193 0.1032929 0.16462834 1.1056974e-38
-1.0548216 0.14926727 0.037175849 1.0780367e-38
-0.9395259 0.055028211 0.16331655 1.262971e-38
-1.022242 0.40240315 -0.059241164 6.5430185e-39
-0.60154527 0.30809194 0.11249088 1.9269262e-38
-0.58629251 -0.057308402 0.6136201 1.2082688e-38
-1.216521 0.54823303 -0.31450978 8.7560471e-39
-1.3141416 0.022102807 -0.38240826 1.1425386e-38
-0.67660779 0.26752153 0.011825759 1.7695793e-38
-1.3320496 0.22883856 -0.34039176 9.4849171e-39
-1.3499711 0.61624342 -1.0261381 1.6172835e-38
-1.2883238 0.19913173 -0.28131995 1.0866041e-38
-1.3312552 0.093780309 -0.38045239 1.1793462e-38
-0.30462354 0.17693612 0.46342304 2.2294502e-38
-0.54798281 -0.13200925 0.63028413 9.7824856e-39
-0.055217411 0.21067758 0.51573211 9.1047056e-39
-0.24346995 0.17976438 0.45049936 2.0731221e-38
-0.393574 0.23878492 0.31299773 2.7550649e-40
-1.1488334 0.6157248 -0.86522585 1.3708286e-38
-1.8110747 0.28970453 -1.0397997 1.0870765e-38
-1.1483685 0.62203801 -0.87151092 1.3157293e-38
-1.3059161 0.53236103 -0.79506391 1.1593917e-38
-0.69561738 -0.036481876 0.4732134 1.1990121e-38
-0.015414733 0.041773919 0.57086682 1.4655145e-38
-1.2951097 0.30232784 -0.8456614 7.0940258e-39
-1.3668165 0.59873128 -0.9247731 1.6815324e-38
-0.64423132 0.34974331 0.082028173 1.2880684e-38
-0.56025058 -0.096371487 0.61321986 6.9204722e-39
-1.2862583 0.20206159 -0.26543179 1.2158648e-38
-1.5617255 0.26153788 -0.67844957 1.3815968e-38
-0.022924075 -0.16327016 0.51401174 1.180108e-38
-1.337448 0.35491645 -0.3331494 1.1224101e-38
-1.2643147 0.56083739 -0.38669744 5.2504636e-39
-0.57330805 0.27479398 0.11395517 2.2406056e-38
-0.61941612 0.38783425 0.00054472964 1.0115583e-38
-0.15481614 0.19797479 0.53327924 8.9181311e-39
-1.3664577 0.1259281 -0.43496248 1.2991267e-38
-1.3104316 0.30004227 -0.27092913 1.4835132e-38
-0.70947349 -0.09067966 0.4280107 1.1528795e-38
-1.036485 0.61777931 -0.84139574 1.2878575e-38
-0.54289359 -0.03606908 0.68209291 1.2177386e-38
-0.9320209 0.084129624 0.18848382 1.2997785e-38
-0.16914958 0.098569177 0.69400001 5.9693157e-39
-1.2599312 0.65676397 -1.0022476 1.2605921e-38
-0.98544693 0.58929533 -0.72640115 1.2053819e-38
-0.66323072 -0.021951813 0.51535624 7.7502539e-39
-1.031026 0.56003505 -0.65951836 1.0876561e-38
-1.2755225 0.62088305 -0.89736664 1.2786731e-38
-1.3671761 0.23666991 -0.38951933 1.4647902e-38
-1.1406355 0.5186922 -0.20838276 6.3589593e-39
-1.174301 0.3138662 -0.74267393 2.3506974e-38
-0.53335071 -0.061138511 0.66925269 1.0611194e-38
-0.57249892 0.36956382 0.045120981 1.1959085e-38
-0.23268305 -0.17694151 0.67494518 7.7487937e-39
-0.94431108 0.087230526 0.17461425 1.0961178e-38
-1.2994119 0.33488762 -0.28177413 1.2050987e-38
-1.2957331 0.32989338 -0.82983607 1.0695397e-38
-1.0437399 0.57049704 -0.70136243 1.3617199e-38
-1.1272115 0.38607049 -0.70946443 1.9079431e-38
-1.3846345 0.18319696 -0.43523639 1.3266778e-38
-0.50022036 -0.19436677 0.66816646 1.014693e-38
-0.6720013 0.057881728 0.54149336 1.3281225e-38
-0.96778053 0.033394076 0.11569497 1.2816269e-38
-0.32428759 0.25438648 0.36722505 1.030613e-38
-0.62737256 0.068471894 0.57035786 8.2828636e-39
-0.43466944 -0.072896697 0.80027992 9.5959209e-39
-1.3233531 0.26100159 -0.30762285 1.5297603e-38
-0.69532681 0.42734882 -0.13713324 1.2318881e-38
-0.32724705 0.27689373 0.32272691 1.0491946e-38
-0.7626816 -0.029109592 0.38456506 1.060935e-38
-1.3373871 0.18975058 -0.3592993 1.2713231e-38
-0.82597768 0.00090027571 0.30145007 1.1337172e-38
-0.89079201 -0.021000478 0.2085183 6.7281356e-39
-1.1314317 0.4992258 -0.20181264 7.0961768e-39
-1.5807241 0.25746617 -0.71017915 1.3908179e-38
-1.1609403 0.37571973 -0.061091747 8.921333e-39
-0.48296559 0.37298864 0.040807378 1.3062953e-38
-0.51143086 0.20916028 0.36633915 1.8074361e-38
-0.18271691 0.1902034 0.44901022 3.4123495e-39
-1.2215279 0.15905127 -0.19305162 1.2899437e-38
-0.96884239 0.40382075 -0.047476381 7.736091e-39
-0.30677739 0.22112919 0.46391678 1.0575431e-38
-0.84841281 0.24072604 0.090090074 1.0561446e-40
-0.92559445 0.071871154 0.18763134 1.3095742e-38
-1.0392748 0.55448258 -0.64685404 9.4947079e-39
-1.3297348 0.08712849 -0.39396879 1.252921e-38
-0.91933125 0.58854961 -0.14717227 6.0823682e-39
-0.5304153 0.21739829 0.36057365 1.7795577e-38
-1.3682507 0.3108184 -0.36197543 1.7874396e-38
-0.985946 0.0017726151 0.072627202 1.2997063e-38
-0.54571062 0.39394665 -0.015432458 1.1956604e-38
-0.37063158 0.39565879 -0.012875376 9.1039895e-39
-0.44665653 0.23578741 0.41808113 1.0029523e-38
-0.44067401 -0.11839824 0.76400864 9.3218606e-39
-0.34455231 0.36469012 0.055812113 1.0392872e-38
-1.0345446 0.62880284 -0.87187487 1.2883953e-38
-1.4265904 0.28436947 -0.45947281 1.566275e-38
-0.2643382 -0.14270502 0.72811854 8.5749391e-39
-1.3450179 0.093690597 -0.41560629 1.3817428e-38
-0.68970197 0.30440718 0.21904828 8.9206324e-39
-1.1566464 0.45358011 -0.23939012 6.3579055e-39
-0.74799222 0.16183829 0.44718593 3.9558053e-39
-1.1071557 0.043544434 -0.081112087 1.2438424e-38
-0.49823263 0.20576045 0.38465238 1.5953144e-38
-0.46905491 0.17893721 0.57716614 4.3249185e-39
-0.3523306 0.16968253 0.45652178 2.1559145e-38
-0.93967265 0.37024066 0.017928127 8.8262886e-39
-0.66301197 0.44101799 -0.19036689 9.7672941e-39
-1.3861469 0.099752672 -0.47534916 1.2714324e-38
-0.50305384 0.28812641 0.27609184 1.1129384e-38
-1.4574282 0.3116293 -0.49378186 1.6401061e-38
-1.1872007 0.63613075 -0.44337365 5.5299427e-39
-1.3192858 0.044258453 -0.38266233 1.1239219e-38
-0.61422437 0.40383455 -0.048758745 1.084377e-38
-0.96083456 0.094800584 0.15923469 9.7658816e-39
-1.3348079 0.14407526 -0.37736154 1.2257312e-38
-0.70057458 -0.055572223 0.45866552 1.3279413e-38
-1.4587656 0.28032795 -0.50582361 1.5016312e-38
-0.30332181 0.17489918 0.46493986 2.1746873e-38
-0.46074754 0.093052104 0.77994877 4.6083928e-39
-0.6843459 0.42881265 -0.14078161 1.1210793e-38
0.02479244 0.023787143 0.52993965 1.2539354e-38
-0.74323887 0.062235933 0.44374791 1.2264185e-38
-0.51380187 0.33098838 0.15739416 8.9228156e-39
-1.2718328 0.3200866 -0.23276651 9.1071971e-39
-1.3552228 0.20917785 -0.37589723 1.2439555e-38
-1.0267965 0.44813842 -0.067260854 6.1749198e-39
-0.74746424 0.42518514 -0.1502182 1.2353103e-38
-1.4045892 0.22852571 -0.45209381 1.3543693e-38
-1.325255 0.08131317 -0.38572708 1.1609389e-38
-0.35848251 0.12501511 0.72807598 3.2182403e-39
-0.34217402 0.16169055 0.46053553 2.2579845e-38
-0.16626744 -0.056698073 0.6720733 1.1428295e-38
-0.65661812 -0.018937964 0.53285396 1.1810064e-38
-0.49349076 0.3192406 0.20962247 9.4777901e-39
-0.17003195 0.19442613 0.46676716 2.2123644e-39
-1.3739581 0.21375681 -0.41033208 1.1331391e-38
-1.4674991 0.23507014 -0.54052693 1.4276942e-38
-0.70474333 0.033177216 0.4850876 1.374328e-38
-0.59984446 0.22014801 0.33402517 1.6319372e-38
-0.67472816 0.28382987 0.035734382 1.4012306e-38
-1.1324773 0.27995336 -0.048387356 1.0856034e-38
-1.2418406 0.60283226 -0.83982527 1.2327517e-38
-0.75947988 -0.083893381 0.35302341 1.1254e-38
-0.89718455 0.19376589 0.25082767 5.4291123e-39
-1.139195 0.56966931 -0.2245587 1.4654398e-38
-1.2735441 0.1762341 -0.2650606 1.2713604e-38
-1.0032023 0.029846361 0.063961916 1.2906277e-38
-1.1956422 0.4844389 -0.28972232 7.5564067e-39
-0.63804126 -0.10739338 0.49789411 6.5495205e-39
-0.38459182 0.26296821 0.33117446 5.339823e-39
-0.74912477 0.032677118 0.41961855 1.0602125e-38
-0.85483789 0.12778603 0.31469598 1.1890696e-38
-0.65505075 0.41788557 -0.10343397 1.1399096e-38
-0.35069478 0.2612558 0.35092282 9.4730845e-39
-1.1465302 0.46464077 -0.22891851 7.9248431e-39
-0.10117766 0.22158171 0.46231669 8.9249512e-39
0.010292817 -0.10387761 0.50621992 1.3272247e-38
-1.2020841 0.51467961 -0.30876136 6.8206787e-39
-0.80823535 0.0017756313 0.33712047 9.5872721e-39
-1.9118584 0.3246049 -1.1731771 6.6308603e-39
-0.52076578 0.21254849 0.3615931 1.8169061e-38
-1.3377916 0.075094275 -0.40726525 1.1885996e-38
-0.30605623 0.29684761 0.26735833 9.5634837e-39
-1.5004605 0.59999359 -1.0003073 1.8045524e-38
-1.2987882 0.26181799 -0.27620208 1.6035521e-38
-0.74608934 0.26438564 0.04604312 1.5578891e-38
-1.2827843 0.27412593 -0.24366485 1.7780706e-38
-1.1229759 0.61132777 -0.28539315 1.3272908e-38
-0.22754152 -0.055766981 0.72550249 1.0321592e-38
-0.88219297 -0.040141381 0.20596221 1.2447126e-38
-0.76683575 0.077658385 0.41021213 1.3833677e-38
-0.15988652 0.19139326 0.5463804 8.4643612e-39
-0.52298737 0.36989164 0.018463373 1.5183095e-38
-0.97120661 0.049579121 0.11646188 1.2171265e-38
-0.98153502 0.22859307 0.13577707 8.1845135e-39
-1.3809646 0.10432813 -0.46490541 1.3266781e-38
-1.4679461 0.37009907 -0.48389921 1.6583301e-38
-0.98476768 0.02160758 0.091635332 8.3026808e-39
-0.14891611 -0.013164264 0.66765589 1.207405e-38
-0.58439583 0.32686228 0.10667044 2.3509863e-38
-0.27679956 0.098216981 0.78876585 3.9518522e-39
-0.41552088 -0.23862162 0.75430423 8.5926361e-39
-1.0553174 0.053636406 0.00072355836 1.2809037e-38
-1.405478 0.29961619 -0.4123264 1.6586527e-38
-0.91632229 0.01538437 0.17910239 1.3372329e-38
-1.2984315 0.067208871 -0.34284434 1.1517231e-38
-0.84969306 -0.057676494 0.23890442 1.2356382e-38
-0.48353201 0.17362192 0.36716846 1.8813316e-38
-1.0724467 0.59492606 -0.7831043 1.3709766e-38
-0.49694416 0.32395968 0.042762876 1.8535325e-38
-1.0921876 0.046480328 -0.061121013 1.2531711e-38
-0.25252792 0.2432981 0.3872163 8.3689412e-39
-1.2694989 0.16214213 -0.26366466 1.2165469e-38
-0.75853294 0.083253346 0.43455619 1.420174e-38
-0.64726055 -0.0026979321 0.55096829 1.3097197e-38
-1.3331941 0.29273725 -0.30577195 1.6308509e-38
-1.2612141 0.5110755 -0.42509237 1.1982172e-38
-1.1540446 0.62824887 -0.90452784 1.3432791e-38
-1.1753883 0.55101103 -0.64619994 1.2327202e-38
-1.3313478 0.14415795 -0.36848602 1.2159004e-38
-0.37390244 0.28302222 0.30229256 1.0759873e-38
-0.96451831 0.13450162 0.16206989 1.326785e-38
-1.0388188 0.21181485 0.083290614 1.5294691e-38
-1.3044266 0.19947463 -0.30820185 1.289475e-38
-0.6126616 0.02846314 0.60712671 1.1711772e-38
-0.5822528 0.39671579 -0.049610905 1.2971081e-38
-1.3593992 0.21457122 -0.38722542 1.4096163e-38
-0.72068 0.38262418 0.0067291637 9.7478399e-39
-0.88687903 0.26783448 0.081842817 7.7253318e-39
-1.0317564 0.20736395 0.090963073 1.4832659e-38
-0.34465492 -0.084082939 0.81093699 7.8344607e-39
-1.6209607 0.52592158 -0.9787147 1.3724885e-38
-0.6028049 -0.10830376 0.55623698 1.0335654e-38
-0.6317206 -0.026912214 0.55862904 9.9575414e-39
-1.3261241 0.23147686 -0.32117596 1.3176381e-38
-0.85456502 -0.00076870411 0.25990748 1.3186862e-38
-1.3343875 0.23374224 -0.33589381 1.4003251e-38
-0.64145273 0.42095712 -0.11377233 1.3338087e-38
-0.42983511 -0.22108953 0.73906952 9.8779575e-39
-0.95142883 0.33268315 0.032003418 1.8436256e-38
-0.52931416 0.40084699 -0.045572553 1.3428106e-38
-0.60945249 0.2136244 0.32687131 1.5307014e-38
-0.45783925 0.36754653 0.052008234 1.3525729e-38
-1.0003896 0.0565781 0.076333538 1.3090681e-38
-0.34768644 0.17275594 0.45559317 2.2203047e-38
-1.2125607 0.48395011 -0.32225502 1.0689651e-38
-0.31552449 0.31135622 0.23117617 1.1127579e-38
-1.1169047 0.21442921 -0.021886706 1.6402127e-38
-0.46673805 0.25943244 0.37057826 1.0212854e-38
-0.50595492 -0.16397718 0.6620124 7.2907051e-39
-0.67235547 0.46642593 -0.25760308 1.410265e-38
-1.3137009 0.13599266 -0.34148103 1.2072162e-38
-0.40458792 -0.048249356 0.83178294 9.1364099e-39
-0.46598449 -0.12179958 0.72369015 8.957083e-39
-1.7414898 0.28023386 -0.93502527 1.372307e-38
-1.006206 0.052344568 0.078568153 1.0134645e-38
-0.46511239 0.17805898 0.5673365 4.0462031e-39
-0.34823561 0.26036665 0.36831155 1.0206391e-38
-0.49585298 0.3637982 0.045537569 1.4167483e-38
-0.05054342 0.20897475 0.50559288 9.6564178e-39
-0.44748986 0.3576684 0.1015387 1.1681852e-38
-0.026847316 0.2112796 0.50358874 8.9170591e-39
-0.60687429 0.40071985 -0.049241871 1.1863295e-38
-0.36585966 0.25101033 0.34947121 7.3537117e-39
-0.38223705 0.35717258 0.087451525 1.2876015e-38
-1.3738511 0.053140841 -0.47296643 1.2437014e-38
-0.53176332 0.27081728 0.32794413 1.1222649e-38
-1.3517431 0.61372638 -1.0394692 1.7462113e-38
-0.47192258 0.022226486 0.73591411 6.2639681e-39
-0.49587262 -0.036863849 0.71828407 7.1084564e-39
-1.0295377 0.60808575 -0.8044973 1.2695981e-38
-0.20911457 0.14771536 0.67934871 6.888758e-39
-1.1911749 0.53346735 -0.57614678 7.6227259e-39
-0.53887773 0.30501693 0.13335346 2.1849989e-38
-0.48569006 0.20729549 0.39723289 1.8630407e-38
-0.56868285 0.42402402 -0.10551039 1.1311923e-38
-0.27416661 0.26650587 0.32304138 9.7551e-39
-0.2662296 0.17147568 0.44918486 1.8154433e-38
-0.71599901 0.020111145 0.46802208 8.5749419e-39
-0.66761804 -0.027653676 0.50933427 1.217703e-38
-1.5106043 0.26612589 -0.59358734 1.4458113e-38
-0.19464552 0.020852674 0.71604669 5.4417254e-39
-1.2367482 0.28026584 -0.1694674 1.6678016e-38
0.023914767 -0.10138917 0.4904353 1.3919374e-38
-1.0567969 0.54451865 -0.61096537 1.3360435e-38
-0.5636276 -0.12176801 0.61231941 1.1162919e-38
-0.50490338 0.32988515 0.0446622 1.677314e-38
-1.2110059 0.63218611 -0.91734314 1.2420824e-38
-0.9109078 0.014998706 0.18804349 9.3996158e-39
-0.4932878 0.32663107 0.062364671 1.3548114e-38
-0.31647995 0.16137086 0.46587715 1.9615847e-38
-0.62000889 0.42146653 -0.11001097 1.2691983e-38
-1.4017005 0.19767362 -0.45612928 1.3176381e-38
-1.2427419 0.0058307382 -0.28970775 1.142433e-38
-0.51808357 0.26179779 0.33506164 1.1037166e-38
-1.1614826 0.59006166 -0.26290333 1.2902346e-38
-1.1894238 0.29450011 -0.69103819 2.1756711e-38
-0.47405139 -0.0015215237 0.75531501 1.2177462e-38
-0.16840012 0.22303742 0.4523299 8.5518877e-39
-0.92843634 0.027442072 0.15969294 1.2724073e-38
-0.61733896 0.27278575 0.31906405 8.0937682e-39
-1.4559892 0.14571898 -0.56101513 1.4002527e-38
0.11086517 0.21665537 0.50888145 1.2444245e-38
-0.63609463 0.26794428 0.34192884 7.0821554e-39
-1.271579 0.16811195 -0.25659108 1.1978573e-38
-1.379427 0.24986038 -0.39703146 1.4004696e-38
-0.98354024 0.076150641 0.10653003 9.1208653e-39
-0.54440808 0.27486902 0.12486336 2.2030402e-38
-1.4174819 0.33693984 -0.41940582 1.6583301e-38
-0.92264384 0.016272761 0.17971192 6.5570847e-39
-0.23329757 0.171271 0.6091888 8.9235583e-39
-1.2758462 0.16842671 -0.26847985 1.2067143e-38
-0.79376078 -0.026141634 0.32585081 1.3095748e-38
-0.97213721 0.050297718 0.11885831 1.022649e-38
-1.5506145 0.17483272 -0.69868433 1.3726642e-38
-0.34463629 0.27515918 0.30149439 8.2818099e-39
-1.6425251 0.26672229 -0.79010493 1.4459904e-38
-0.67087263 0.27796713 0.041751955 1.3459842e-38
-1.3054729 0.20743819 -0.30791757 1.345009e-38
0.14957781 -0.015320654 0.41893509 1.4746256e-38
-0.30989566 -0.18151455 0.74803692 6.2703972e-39
-1.2874448 0.3647455 -0.84721702 7.0807051e-39
-1.2584305 0.55655426 -0.39529344 7.5622319e-39
-1.0308882 0.1196721 0.061847329 1.3545918e-38
-1.3613509 0.60508835 -0.9869203 1.829189e-38
-1.2945337 0.26290619 -0.26916745 1.7414462e-38
-0.32441425 0.34826618 0.10766555 1.1864371e-38
0.046383042 0.21488205 0.49751443 9.103244e-39
-0.58731544 0.28678539 0.12064254 1.9271408e-38
-1.3592794 0.16198364 -0.40851197 1.216367e-38
-0.54604387 -0.10875854 0.61665094 7.6580429e-39
-1.1077334 0.45382324 -0.17252572 5.9861915e-39
-0.74060351 0.2540617 0.06924285 1.7793031e-38
-0.7143265 0.43466443 -0.16656764 1.078615e-38
-1.0595667 0.39722526 -0.10249736 1.0500948e-38
-0.44233391 0.35102338 0.10254753 1.048581e-38
-0.6176728 -0.091645256 0.5530957 1.0599308e-38
-1.7340661 0.26059389 -0.92826951 1.3078771e-38
-0.60779005 0.01622298 0.60507679 9.1306422e-39
-1.3746394 0.07931222 -0.46469223 1.3358245e-38
-1.2991345 0.0065223463 -0.37384027 1.0318702e-38
-1.1328186 0.49932134 -0.82351989 1.1892495e-38
-0.99238837 0.61156464 -0.79457533 1.2237524e-38
-0.57221889 -0.16609663 0.5864889 9.4115549e-39
-1.2560554 0.5673449 -0.37386644 5.2536992e-39
-0.53536797 0.27354202 0.12564386 2.0926593e-38
-1.3406812 0.23194046 -0.34669518 1.3357529e-38
-0.63962191 0.40053755 -0.041144732 1.140163e-38
-0.56262225 0.30433998 0.13258097 2.3048517e-38
-1.4263675 0.11306923 -0.52739561 1.3358232e-38
-1.30591 0.25610313 -0.27961236 1.7231167e-38
-1.140626 0.48614177 -0.21187611 5.4431323e-39
-0.57104385 0.28628489 0.12153205 2.2677193e-38
-0.28813839 0.24200702 0.41549236 1.0946082e-38
-0.73774475 -0.077832483 0.40916675 7.9302759e-39
-0.59187245 0.28818384 0.10768753 2.0745815e-38
-0.87088841 0.011557744 0.26103178 7.6475906e-39
-0.66246212 -0.03073784 0.51977789 1.2268149e-38
-1.6033822 0.14985992 -0.77466375 1.3173486e-38
-0.29701191 0.16946748 0.46127683 1.8892052e-38
0.062431652 -0.071417823 0.4737725 1.2996376e-38
-1.2653821 0.37183318 -0.20628056 8.3692733e-39
-0.59956813 -0.16637436 0.55740875 8.5832011e-39
-0.37785858 0.28057212 0.30874997 1.0848484e-38
-1.1392233 0.60090685 -0.26479098 1.0598139e-38
-0.31488499 0.28726861 0.27903295 1.0667998e-38
-1.2906203 0.41237038 -0.23966214 1.1219412e-38
-0.53906119 0.29457468 0.12556837 2.3136707e-38
-1.2569656 0.29609704 -0.19031724 1.6859476e-38
-0.60276228 0.43913755 -0.1586806 1.1584925e-38
-1.2902074 0.38063949 -0.84238386 9.9300802e-39
-0.41489545 0.37178129 0.065958157 1.2235006e-38
-1.2946981 0.44637778 -0.81397015 1.4192366e-38
-0.56111723 0.42078045 -0.10352873 1.2966049e-38
-1.045951 0.14856084 0.046290778 1.105695e-38
-1.5359387 0.30940711 -0.61477453 1.6672936e-38
-1.3371607 0.5120185 -0.82825863 1.9296627e-38
-0.80114138 0.3745203 -0.064072207 2.0366234e-38
-1.127412 0.10990092 -0.068114847 1.2441702e-38
-1.2060454 0.19621465 -0.15177086 1.3175675e-38
-0.67577523 0.020995008 0.52488601 1.3741483e-38
-0.92668366 0.027139988 0.17149165 1.2813751e-38
-0.21489441 0.18261442 0.45005614 1.9259686e-38
-1.0184191 0.034237463 0.037918635 1.3545905e-38
-0.5128864 0.14589849 0.44179517 1.3180012e-38
-0.46255922 0.2951636 0.24602664 8.4647087e-39
-0.63817048 -0.067822829 0.53405458 9.7774605e-39
-1.6359674 0.29698148 -0.77200919 1.1326338e-38
-0.53625798 0.31591773 0.017346296 1.9724827e-38
-0.48958686 0.32149571 0.18791516 9.9373375e-39
-0.69128478 0.055705465 0.51028037 9.8645947e-39
-0.91647649 -0.02247761 0.16706121 1.1430816e-38
-1.5338825 0.22035527 -0.65243137 1.4462059e-38
-1.1047907 0.55435646 -0.56300169 5.3451829e-39
0.063569389 -0.089745618 0.46892452 1.4932079e-38
-1.4647669 0.46925309 -0.48054647 6.8988306e-39
-0.48201466 0.20678212 0.40424767 1.8908035e-38
-1.6145796 0.50268561 -0.96794015 1.3358273e-38
-0.73985106 0.072119452 0.45935079 8.5731552e-39
-1.372954 0.27353546 -0.38271415 1.5021739e-38
-0.15877546 0.085009165 0.68199301 6.0694426e-39
-1.1338329 0.32229581 -0.70935047 2.1114577e-38
-0.04695477 0.21580246 0.48630777 1.0117374e-38
-0.567711 0.23706077 0.34163362 1.5397801e-38
-1.3018854 0.37331548 -0.81394202 1.3365473e-38
-1.4404658 0.07489951 -0.56357878 1.3172767e-38
-0.4933719 0.36480927 0.038503904 1.4081439e-38
-1.4789466 0.14415167 -0.59565216 1.3635908e-38
-0.75881994 -0.069006473 0.37106952 1.2820232e-38
-1.1292847 0.36511618 -0.72437948 1.7968377e-38
-1.1257151 0.37682924 -0.72143936 1.9074762e-38
-1.4573687 0.12014533 -0.56765306 1.3814184e-38
-0.67112285 0.042441703 0.53320938 1.3283026e-38
-0.82757777 0.39543703 -0.050023708 9.9340178e-39
-0.98055601 0.066729248 0.10866077 1.2540761e-38
-0.8731848 -0.027301565 0.21578512 1.142685e-38
-0.63593918 0.052139584 0.58535963 1.3097547e-38
-1.3690469 0.082707979 -0.4540033 1.2528847e-38
-0.79531807 -0.04284358 0.35595572 8.8486379e-39
-1.0333024 0.24997213 0.076902173 7.4476953e-39
-1.1205899 0.65917283 -0.48922116 3.0420704e-39
-0.32602718 0.17045687 0.45230812 2.0831797e-38
-1.3745059 0.58570653 -0.91712427 2.0033899e-38
-1.2772964 0.28424978 -0.2301272 1.5109882e-38
-1.3643074 0.37800354 -0.35350063 1.0482566e-38
-0.7665149 -0.081763119 0.35774207 1.005546e-38
-0.81861842 0.0027012029 0.30987376 1.2913516e-38
-1.1507068 0.48624751 -0.23011079 7.0043441e-39
-0.33067167 0.1209201 0.72745115 2.2058456e-39
-0.58243257 -0.053806916 0.59934741 8.4824057e-39
-0.51961893 0.33195877 0.030823721 1.8714331e-38
-0.88116032 0.55949366 -0.095290437 9.7658424e-39
-1.4217465 0.2292238 -0.47471011 1.3451892e-38
-0.99943203 0.01571597 0.050940719 1.0045338e-38
-1.1372689 0.53225899 -0.78258014 5.7938899e-39
-1.3178052 0.21561611 -0.31545377 1.2715379e-38
-1.7739913 0.37758476 -0.94224375 1.4001781e-38
-0.43352357 0.33597791 0.1500017 1.2142065e-38
0.13925707 0.080489375 0.45302254 1.410484e-38
-1.2344928 0.6063562 -0.34814546 1.5673202e-38
-1.1240393 0.35008302 -0.69879454 1.3365122e-38
-0.74633253 0.078352854 0.43960252 7.4696789e-39
-0.74666828 0.24945453 0.063826486 1.7892439e-38
-1.2213393 0.58589017 -0.32187784 8.8518174e-39
-1.1487905 0.30593759 -0.71133393 2.2402096e-38
-0.30538359 0.26542932 0.33900896 9.4763846e-39
-0.30162516 0.25142252 0.38979313 1.1684722e-38
-0.32820952 0.32433742 0.17925586 1.0941711e-38
-0.2111223 0.16912793 0.61680275 7.1692854e-39
-1.4579058 0.26656148 -0.50919795 1.2616347e-38
-0.61628842 -0.13569872 0.54149634 9.6830845e-39
-0.23368442 0.17314395 0.4597562 1.8250356e-38
-1.4276474 0.13846084 -0.52081072 1.2993052e-38
-0.54768157 -0.036288243 0.66438359 1.1259058e-38
-0.37752637 0.24720114 0.39535272 1.0670571e-38
-1.4605066 0.31846386 -0.49422455 1.7044262e-38
-0.98440176 0.03764065 0.094568826 1.0411227e-38
-1.0797626 0.61034966 -0.81798577 1.3252357e-38
-1.5754563 0.16622782 -0.7370823 1.2987278e-38
-1.4300251 0.23273423 -0.48370638 1.2990541e-38
-1.340484 0.044454057 -0.42623299 1.2251552e-38
-1.15142 0.5854066 -0.25492841 1.2626836e-38
-0.40203813 0.24452814 0.40539345 1.0579841e-38
-0.67456931 0.28379145 0.021193346 1.7709527e-38
-0.46775597 0.15814614 0.37596783 1.5217731e-38
-0.8783198 -0.033621814 0.20989487 1.2356382e-38
-1.0488 0.62944794 -0.86889857 1.223753e-38
-1.3660115 0.12402184 -0.43159807 1.3357541e-38
-0.67398429 -0.0022160639 0.50835413 7.9339165e-39
-1.1552832 0.35376438 -0.054669708 9.6578639e-39
-0.16960575 0.078213222 0.69291747 4.8673177e-39
-0.85000062 0.23125875 0.084838599 1.7055204e-41
-1.2675227 0.49817386 -0.49928865 9.4849619e-39
-1.6393601 0.24957021 -0.79492784 1.3353911e-38
-0.42835274 0.26948598 0.27320829 2.1762165e-42
-0.98618931 0.36943847 -0.0030648105 1.1884181e-38
-0.77870739 -0.00044430583 0.36858636 1.0871173e-38
-0.54131228 0.27441439 0.12820688 2.0926959e-38
-0.64896894 0.40646794 -0.045945887 9.6589163e-39
-0.85681355 0.045939669 0.26266402 1.2271017e-38
-0.55104375 0.28173327 0.29476508 1.0761693e-38
-1.3934911 0.3893168 -0.41131407 9.660368e-39
-0.79596901 0.051236879 0.35968351 1.356032e-38
0.1322304 -0.13922672 0.39899999 1.4561849e-38
-0.7962299 -0.0345244 0.32821053 1.2727686e-38
-0.47624001 0.1932057 0.42868891 1.3932753e-38
0.10305629 -0.11358759 0.42899999 1.5116468e-38
-0.4095569 0.35215107 0.10102835 1.315511e-38
-0.54796147 -0.17741084 0.61643684 1.0516124e-38
-1.2329733 0.57481068 -0.33363664 8.3865653e-39
-1.1105784 0.53790045 -0.57367688 1.1611245e-38
-1.3183841 0.2696625 -0.29793677 1.6125913e-38
-1.4613929 0.19105025 -0.54810476 1.2619941e-38
-1.5247694 0.19138311 -0.64484572 1.271071e-38
-1.4039285 0.11111613 -0.49067774 1.3172412e-38
-0.53171796 -0.017612269 0.67554104 8.4867245e-39
-0.39693576 -0.1134675 0.82661688 1.0613729e-38
-0.34699085 0.18303487 0.45871818 1.962912e-38
-0.77220106 -0.049862161 0.37608626 9.8613325e-39
-1.5335399 0.16544728 -0.67223328 1.3540472e-38
0.025134213 -0.026743257 0.51517099 1.5853685e-38
-0.44367018 0.24721056 0.25233039 4.4265043e-39
-0.70642895 0.41385436 -0.093293771 1.1306901e-38
-0.25022721 0.22858022 0.42591253 8.8273676e-39
-0.99446368 0.16466989 0.13363235 1.3725567e-38
-0.26782498 0.25896975 0.36850715 1.1134069e-38
-0.39808965 0.35322535 0.11250906 1.2787068e-38
-0.49386099 0.22766621 0.39194351 1.5398873e-38
-1.1831126 0.51894438 -0.55321544 1.1423588e-38
-1.4761525 0.19902168 -0.5767414 1.4092923e-38
-0.95434982 0.079407677 0.15887676 1.1988321e-38
-0.90124977 0.093689218 0.22455736 1.2357069e-38
-0.79498965 0.37483063 -0.055724606 2.221809e-38
-0.28218636 0.26598549 0.33721998 9.755121e-39
-0.53636467 0.21893707 0.35258254 1.8072884e-38
-1.1539551 0.58055925 -0.2554127 2.3509886e-38
-1.4939282 0.12017833 -0.62902689 1.2896175e-38
-0.98933268 0.58487976 -0.16923951 1.1056215e-38
-0.55752563 -0.036963366 0.65544105 1.3002843e-38
-1.4972194 0.13649307 -0.62952149 1.3175999e-38
-0.60221982 0.42478541 -0.11677221 1.3154759e-38
-0.20746207 0.027340464 0.71237022 2.7554797e-39
-1.363821 0.60001135 -0.9916634 1.6635611e-38
-1.1318753 0.42481029 -0.70308536 1.7512834e-38
-0.68063647 0.27725592 0.01968422 1.7062343e-38
-0.51736414 0.23819654 0.37056443 9.3031687e-39
-1.3171939 0.2190603 -0.31796661 1.4094738e-38
-1.4963031 0.14183687 -0.62739837 1.3450794e-38
-0.50735086 0.15661088 0.41777262 1.2536438e-38
0.16293241 -0.0076610441 0.4107267 1.4103761e-38
-0.349819 0.26759586 0.32275498 9.9398444e-39
-1.4764411 0.26647452 -0.53814483 1.3905663e-38
-0.66794568 0.30053741 0.050451659 1.6319034e-38
0.094933741 0.024880067 0.46722609 1.4288152e-38
-0.52725917 0.22341788 0.35484183 1.7978523e-38
-0.27501342 0.26167235 0.37242788 1.0301066e-38
-0.93655252 0.073988222 0.17861551 9.5829099e-39
-0.75650722 0.24315163 0.055588264 7.0860931e-39
0.034410864 0.036507599 0.52754688 1.5026421e-38
-1.3934535 0.34067401 -0.38108572 1.6215944e-38
-1.4063389 0.13576241 -0.48775631 1.2991986e-38
-0.26901057 0.39200202 0.12406079 1.7507424e-38
-0.4022983 -0.14611274 0.81036973 8.7531744e-39
-1.3551699 0.3786504 -0.35117429 1.0115971e-38
-0.63526344 0.27470052 0.30996844 8.9167116e-39
-0.18652965 0.23111507 0.42426887 1.0673463e-38
-1.3257813 0.1520028 -0.35997337 1.2713601e-38
-1.6239148 0.24929121 -0.76826799 1.445952e-38
-0.22646911 0.26370522 0.35968184 1.0024106e-38
-0.583004 0.32184455 0.11819304 2.3508053e-38
-1.1834342 0.64365244 -0.9521659 1.2327911e-38
-0.32485938 -0.094235837 0.79311961 8.6682039e-39
-0.4259631 0.25190201 0.39216277 1.1135165e-38
-0.56286991 0.41956216 -0.089785352 1.0941358e-38
-1.3469996 0.12866671 -0.40199584 1.2623929e-38
-0.47122148 0.16838375 0.38005 1.7521893e-38
-1.3382369 0.24873163 -0.338395 1.5111056e-38
-0.20847932 0.17750859 0.59630263 1.0211039e-38
-0.68591982 0.29836777 -0.013695788 1.6585079e-38
-0.66775441 0.026788048 0.51528805 8.1128721e-39
-0.66589195 -0.06813392 0.49250329 1.2174897e-38
-0.20006134 0.22677679 0.44299489 1.0673836e-38
-1.2219741 0.39539987 -0.1509054 5.9801155e-39
0.16528763 0.061488889 0.42732969 1.419524e-38
-1.0714055 0.50948817 -0.76110494 1.4608011e-38
-1.3860621 0.084911555 -0.47856817 1.3171358e-38
-0.74655563 0.032313101 0.42160487 1.2538253e-38
-1.3860997 0.13137877 -0.45818049 1.3082384e-38
-0.0088870134 -0.18292311 0.50078171 1.1434078e-38
-1.3576949 0.43248719 -0.33716226 9.2004633e-39
-1.3231939 0.082069963 -0.3766025 1.2070049e-38
-0.94109505 0.0086286198 0.14930658 1.0778585e-38
-0.62305135 -0.004503591 0.58836466 1.0611868e-38
-1.044378 0.191107 0.070532441 1.7694669e-38
-1.4001886 0.60020965 -0.83986694 1.2325404e-38
-0.67537159 0.083514139 0.52463251 5.0635696e-39
-1.1442504 0.5832954 -0.80968815 1.4357987e-38
-0.40721008 -0.24670489 0.75634444 7.6634449e-39
-1.3120787 0.60938197 -0.87120122 1.416463e-38
-1.3048197 0.39402398 -0.80118239 1.4748041e-38
-1.2147101 0.49905404 -0.32190791 9.6761929e-39
-1.3089774 0.44322595 -0.79106373 1.3828247e-38
-0.5344125 0.3116639 0.017791292 1.7052579e-38
-0.51428163 0.21890588 0.36643854 1.8259446e-38
-1.0539995 0.53476852 -0.096104071 1.2080852e-38
-0.92937827 0.11349244 0.20269226 1.391935e-38
-1.3258437 0.25208682 -0.31273928 1.4376343e-38
-1.3424064 0.039700005 -0.42809844 1.2434865e-38
-1.2505813 0.29376286 -0.18322705 1.4740071e-38
-1.3202519 0.21595711 -0.32517332 1.3911406e-38
-1.1393129 0.5629133 -0.21555895 1.1613056e-38
-1.3435581 0.10910961 -0.40031371 1.2529576e-38
-1.0223601 0.59077442 -0.72800148 1.1593955e-38
-1.2032145 0.47512695 -0.30738246 9.9542371e-39
-0.73726875 -0.034203887 0.41608521 1.3647118e-38
-1.3144797 0.015997227 -0.38065916 1.0689633e-38
-1.0556955 0.59868777 -0.77680659 1.3800539e-38
-1.5822424 0.19350453 -0.73079014 1.2156465e-38
-1.4090233 0.10803627 -0.50157487 1.3727741e-38
-1.4191593 0.13742638 -0.51428437 1.4002179e-38
-0.46632931 0.19494981 0.42500186 1.4109599e-38
-0.52263862 -0.024187494 0.70162785 1.0889912e-38
-1.2443041 0.47773221 -0.37039381 8.3901526e-39
-1.596577 0.34066683 -0.69062811 1.7686385e-38
-0.55843586 0.22191989 0.34574768 1.7240618e-38
-0.35277018 0.15678991 0.46577176 1.474503e-38
-0.48255739 0.177047 0.3741836 1.8538931e-38
-0.6247741 0.092333153 0.58598512 5.6200056e-39
-1.1945071 0.15547192 -0.15907814 1.0779268e-38
0.056037847 0.16000901 0.51695418 5.7978976e-39
-1.4529971 0.25812528 -0.51077193 1.3820655e-38
-0.6520083 -0.086013086 0.49572295 1.217453e-38
-1.1744918 0.32698408 -0.66937184 1.3555651e-38
-0.48081195 0.16502786 0.3696411 1.8633259e-38
-1.0265635 0.28255287 0.10593443 8.087297e-39
-0.45178953 0.33382535 0.15130459 1.0946801e-38
-1.4456408 0.29678208 -0.48486248 1.6216679e-38
-0.21698579 0.11044187 0.741 4.2244328e-39
-0.38435739 0.34915832 0.12135456 1.2233914e-38
-0.28095523 -0.082242914 0.76159263 9.6784126e-39
-1.5304028 0.31396121 -0.60677463 1.3627253e-38
-0.48730811 0.31932124 0.076365799 1.3550276e-38
-0.31854054 0.1945131 0.46406174 1.6858988e-38
-1.3585703 0.28466767 -0.34711421 1.4094683e-38
-0.53053343 0.39865851 -0.019514816 1.0667307e-38
-1.3267355 0.065493479 -0.38780364 1.1701969e-38
-1.6343734 0.29807204 -0.77558434 1.3075897e-38
-0.96092415 0.043339618 0.13711725 9.951698e-39
-1.0755267 0.50563651 -0.77169245 1.5708951e-38
0.1361185 -0.011024114 0.42826319 1.5116468e-38
-1.0769191 0.48603508 -0.73204756 1.8909822e-40
-1.4955223 0.17798194 -0.60955423 1.363699e-38
-1.3193322 0.2754209 -0.2901088 1.6676215e-38
-1.5799588 0.29752725 -0.68930995 1.3907813e-38
-0.52919364 0.18534048 0.33220109 1.9363273e-38
-1.3922381 0.21680821 -0.42989141 1.3909254e-38
-1.6268499 0.34707829 -0.7343058 1.3634078e-38
-0.52672398 0.18090573 0.33593461 1.9364692e-38
-0.45162594 0.15224238 0.41376284 1.2635508e-38
-1.1260216 0.55232626 -0.64351684 1.1681832e-38
-0.51231813 0.30236146 0.020047501 2.0744758e-38
-0.10728096 -0.01429114 0.63900536 9.3647375e-41
0.080043554 -0.1169601 0.44537276 1.5299783e-38
0.010942402 -0.19330119 0.48121187 1.1524123e-38
-0.92201775 0.081033528 0.19540872 1.3178207e-38
-1.0672764 0.20689401 0.046858177 1.4927726e-38
-1.282251 0.35321635 -0.84744793 8.6505097e-39
-1.3015884 0.3400023 -0.2884275 1.0398286e-38
-0.31695619 0.27835906 0.29092225 1.0758412e-38
-0.54693037 0.19499888 0.33897051 1.852847e-38
-0.97765344 0.0071642362 0.090270318 1.0689269e-38
-0.59714204 0.11063151 0.51758587 1.199229e-38
-0.34801057 0.37811363 0.037231278 1.2233909e-38
-1.1931411 0.37620342 -0.11279138 9.9268726e-39
-0.17351705 -0.13113239 0.65146452 9.2170645e-39
-0.3186934 0.30521888 0.23236719 1.1593605e-38
-1.3733542 0.227907 -0.40193477 1.38185e-38
-1.0258588 0.049969621 0.038893647 1.1801025e-38
-0.61134791 -0.095901623 0.56235963 1.0142639e-38
-0.72220248 0.24269184 0.082385615 1.6961825e-38
-0.54411608 0.31106839 0.21677993 9.2865689e-39
-1.0288066 0.62865227 -0.8707642 1.2788164e-38
-1.3151712 0.18641594 -0.32546204 1.2071812e-38
-0.38933349 0.26886037 0.31277606 6.6298485e-39
-0.70735586 -0.1106621 0.42461693 1.162206e-38
-1.361586 0.13187292 -0.42231429 1.3267494e-38
-0.61077797 -0.059664413 0.55722404 1.1992657e-38
-1.3787153 0.17884441 -0.42865974 1.2439881e-38
-0.48906916 0.29228279 0.2627432 1.1409561e-38
-0.17745309 0.25274676 0.40438262 7.906856e-39
-0.67052525 0.44859698 -0.20245743 1.0410117e-38
-0.41378051 -0.13629013 0.79724962 9.1317254e-39
-1.3127871 0.049084198 -0.374257 1.2252643e-38
-1.220278 0.64995563 -0.97630084 1.2053119e-38
-0.54768908 0.31253496 0.014337043 2.1011253e-38
-1.0607982 0.20786709 0.052328698 1.7509907e-38
-0.70468438 0.084145322 0.51458991 1.0414529e-38
-0.5090968 -0.14383908 0.67005622 7.6580401e-39
-1.3010981 0.37570518 -0.81891042 1.4378903e-38
-0.97801185 0.081870519 0.11986387 1.2908111e-38
-1.1110212 0.2503621 -0.0016481309 1.7690656e-38
-0.84113371 0.12252102 0.32390493 1.4104843e-38
0.0550429 0.063365929 0.51966339 1.2905616e-38
-1.3288013 0.055665351 -0.39252266 1.1884601e-38
-0.6071322 -0.086029261 0.5620079 1.1718591e-38
-0.88773972 0.34925935 0.068200797 9.8368252e-39
-0.33178401 0.24164282 0.40564191 1.021395e-38
-0.74519336 0.0052347039 0.41295496 1.392443e-38
-0.60055208 -0.11417684 0.54891634 5.9924077e-39
-0.52095264 0.26347932 0.11688979 1.806999e-38
-1.3416849 0.28298378 -0.32942832 1.6216315e-38
-1.3019842 0.37878034 -0.81207877 1.3828236e-38
-1.2036741 0.4563992 -0.3090106 1.1702316e-38
-1.1242727 0.60176891 -0.2783412 1.0042467e-38
-0.59865689 -0.050898358 0.59462297 1.1441284e-38
-1.1573296 0.56331432 -0.23442051 1.1430829e-38
-0.75347084 0.42635146 -0.14992873 1.161444e-38
-1.2891753 0.26728329 -0.25615883 1.6216679e-38
-0.69834584 -0.047188234 0.45771366 1.3738951e-38
-0.71945202 0.40556583 -0.086442024 1.1130421e-38
-1.5509431 0.17378089 -0.69654214 1.3910697e-38
-0.50855184 0.33402044 0.14785892 1.0213526e-38
-0.55211186 -0.073020019 0.64309376 6.9190107e-39
-1.3274934 0.04408253 -0.40777823 1.2987667e-38
-1.2184356 0.42957476 -0.65746486 1.1341502e-38
-1.2861695 0.31883672 -0.85202545 1.1400907e-38
-1.1364762 0.5968262 -0.25443977 1.0228307e-38
-0.1715738 0.24513532 0.42384154 7.9976223e-39
-0.52260131 -0.11580503 0.66768944 1.1072887e-38
-1.3864261 0.42366606 -0.38160855 7.5549872e-39
-0.54114813 -0.073470972 0.66151953 1.2543294e-38
-0.4287481 0.40734452 -0.066681661 1.3152974e-38
-1.273599 0.30354559 -0.21779148 1.3819967e-38
-1.4051452 0.30101863 -0.4199115 1.6863481e-38
-0.75827134 0.39324668 -0.049227912 1.1036075e-38
-0.49809134 0.30885461 0.041828182 1.806999e-38
-1.2130958 0.45939305 -0.32207382 1.0230841e-38
-1.5115122 0.36083424 -0.55211705 1.6399246e-38
-0.10886197 -0.007279641 0.63434064 7.5590103e-39
-0.67313564 0.45194599 -0.20982121 1.1519021e-38
-1.0786484 0.53961295 -0.59653914 1.1337875e-38
-0.46278203 0.39266104 -0.022323849 1.3706135e-38
-1.0726329 0.50570005 -0.73391527 1.2893501e-39
-1.3046895 -0.0028157844 -0.37521982 1.0871879e-38
-0.66830295 0.42796582 -0.13201901 1.1220469e-38
-0.44572049 -0.19933335 0.73564738 8.9538137e-39
-1.2630126 0.17894529 -0.24304238 1.1332484e-38
-1.5355613 0.21072708 -0.65882915 1.2892951e-38
-1.2841771 0.04533023 -0.33540466 1.2529932e-38
-1.1576772 0.61434406 -0.86060494 1.3062959e-38
-1.0832826 0.56242818 -0.15517938 1.3736433e-38
-1.1008182 0.59899437 -0.77904838 1.3252357e-38
-0.20348711 0.225109 0.44074363 9.3852105e-39
-0.73714226 0.15159799 0.45192596 3.9525557e-39
-1.5277072 0.23949631 -0.6264267 1.2613812e-38
-0.43706518 0.35525969 0.089211524 1.0487978e-38
-0.91819423 0.26853436 0.24537493 4.8673065e-39
-0.68496883 0.28277007 0.013739669 1.7425673e-38
-1.1983236 0.6332522 -0.41883731 8.8471735e-39
-0.74748921 0.26045799 0.038256034 1.7977053e-38
-1.0434444 0.56143993 -0.66864848 1.2881097e-38
-1.4259883 0.19601005 -0.49468601 1.3909248e-38
-0.6597259 0.0066749747 0.52918339 1.2636957e-38
0.19386113 0.11026302 0.41100001 1.3363324e-38
-1.4522405 0.54719305 -0.87958848 1.4541943e-38
-0.47768158 0.20532481 0.40685037 1.6599597e-38
-0.745139 0.021476047 0.41686481 1.0788712e-38
-1.0212991 0.13656238 0.085361466 1.1517229e-38
-1.2604989 0.30266985 -0.20320417 1.12306e-38
-1.287569 0.25525343 -0.24820454 1.2711752e-38
-1.5088483 0.17234462 -0.63660163 1.0037061e-38
-1.5706655 0.21763737 -0.71073467 1.3448626e-38
-0.94756061 0.0034575849 0.12225971 1.1711344e-38
-1.3611685 0.0558469 -0.44996855 1.3262474e-38
0.021977279 -0.16101326 0.48059168 1.2260246e-38
-0.42487711 0.42017081 -0.081171244 1.0115601e-38
-0.1349629 -0.093092509 0.63191402 1.004899e-38
-1.2791662 0.23566481 -0.25605521 1.5573092e-38
-1.4570765 0.11396623 -0.57596511 1.3359324e-38
-0.69938481 0.40670571 -0.076249219 1.0480726e-38
-1.9063939 0.28353924 -1.1870704 6.4479081e-39
-0.64378363 -0.14191036 0.49398971 1.1713877e-38
-0.72290307 -0.02018149 0.4383108 1.3649635e-38
-0.66838944 0.001847635 0.52318859 9.311781e-39
-0.9748199 0.00014570507 0.094245404 9.1233989e-39
-0.31846917 0.34243226 0.14502394 1.195698e-38
-0.58348292 0.26415294 0.10808914 2.3509886e-38
-0.55674732 0.026932914 0.67119449 7.1059411e-39
-0.73823214 0.39214119 -0.05113532 1.2416504e-38
-1.3379972 0.23506083 -0.33964154 1.3359327e-38
-0.21049941 0.17304857 0.46374714 1.7973033e-38
-0.41142151 0.18503533 0.57461381 8.0066467e-39
-0.64319289 -0.010595723 0.55731797 1.1529514e-38
-1.0287147 0.27025297 0.086864054 1.122877e-38
-1.2604343 0.3288447 -0.23132485 1.0306438e-38
-1.2222975 0.32139516 -0.16629471 8.9166639e-39
-1.0037318 0.13714553 0.1118612 1.1148429e-38
-1.3146247 0.13891885 -0.34688708 1.3541917e-38
-1.2955126 0.41127557 -0.24998294 9.1986864e-39
0.13825487 0.058395248 0.44670832 1.4655139e-38
-0.79145861 0.089719474 0.39877659 1.0703347e-38
-1.3137625 0.16447221 -0.32813832 1.2435592e-38
-0.58766311 -0.15312089 0.56962216 1.1713527e-38
-1.0742518 0.57184714 -0.67652905 1.0762746e-38
-0.51369303 0.30290288 0.022835683 1.7426066e-38
-1.1347102 0.50056958 -0.19985734 6.1713339e-39
-0.71068704 -0.015006038 0.45408568 1.0139724e-38
-1.2457093 0.51836419 -0.5522458 9.8443683e-39
-0.52610052 0.37589675 0.020446667 1.3249505e-38
-1.2094696 0.5999245 -0.32691452 1.4753799e-38
-0.49124697 0.19659473 0.38680598 1.1434098e-38
-0.62668228 -0.12900068 0.52209115 1.217307e-38
-0.4653163 0.34501219 0.1153255 1.0945677e-38
-0.93277603 0.13342573 0.20975131 1.1148794e-38
-0.045457445 -0.11686088 0.5385862 1.225954e-38
-1.1226858 0.3632625 -0.70568448 1.6040222e-38
-0.46612746 0.22612703 0.44179115 8.1910015e-39
-0.83771795 0.24441554 0.23056397 1.08693e-38
-0.031225313 0.21394341 0.50100476 9.0161253e-39
-0.42112413 0.33134916 0.15200819 1.232428e-38
-1.1169182 0.54948479 -0.6241889 1.1685075e-38
-1.0046128 0.096051194 0.085560359 1.1610498e-38
-1.1906084 0.58829767 -0.2927101 2.1657278e-38
-0.62171137 0.43955797 -0.16529688 1.1307604e-38
-1.1996403 0.46160901 -0.30587614 7.9227061e-39
0.10241085 -0.081332065 0.43557495 1.5760038e-38
-0.49156791 0.21526347 0.38251966 1.8808632e-38
-0.58682007 0.30360705 0.13466604 1.8905531e-38
-0.53430259 0.31013942 0.014001429 2.1297213e-38
-0.69043261 0.071430311 0.5177967 1.4015904e-38
-0.67971826 0.4490653 -0.20504475 9.3992305e-39
-1.1640723 0.63648975 -0.91421098 1.2329327e-38
-1.4217737 0.25352547 -0.45101726 1.3636286e-38
-1.511204 0.18698022 -0.62980783 1.3728454e-38
-1.3359329 0.26566073 -0.31710467 1.5943685e-38
-1.2469983 0.53225374 -0.44971406 6.3568237e-39
-0.9814716 0.076203577 0.11402167 1.0228279e-38
-0.4895944 -0.14480881 0.69461584 9.7843157e-39
0.11326952 -0.028713316 0.43933818 1.5301584e-38
-0.46154422 0.15762188 0.39977348 1.5954201e-38
-1.2703621 0.29854342 -0.20817785 1.7232612e-38
0.15795021 0.07330703 0.43099999 1.4562591e-38
-0.28061813 0.49560782 0.13331594 1.5123323e-38
-1.3551873 0.077396207 -0.43410429 1.2899069e-38
-1.3571364 0.05338591 -0.44753584 1.2253702e-38
-0.43804863 0.36333776 0.069915764 1.269487e-38
-0.48313898 0.32302478 0.18404298 1.2048839e-38
-1.4288052 0.2461437 -0.46794799 1.3452242e-38
-0.9422946 0.13830517 0.20161098 1.1243901e-38
-1.0900133 0.62591225 -0.86699557 1.2603433e-38
-1.158305 0.42982164 -0.23761161 1.0045306e-38
-0.64002907 0.0025590677 0.55811632 1.3280506e-38
-1.2607702 0.044456989 -0.30236015 1.1610851e-38
-0.65830147 -0.049084324 0.52262264 1.0231222e-38
-0.52670884 -0.10211024 0.6652416 7.3796511e-39
-1.1269841 0.42325041 -0.6931566 1.6780333e-38
-0.24069485 -0.048042115 0.7298519 8.7600674e-39
-1.3038964 0.13946415 -0.33034939 1.3174214e-38
-1.2621294 0.61657363 -0.8795864 1.2052747e-38
-1.1318079 0.33928052 -0.73266655 2.3509881e-38
-1.0610288 0.13680005 0.011799091 1.0688534e-38
-1.2424626 0.58607703 -0.3479811 7.2791416e-39
-1.4623872 0.42947212 -0.48781028 9.3830525e-39
-1.2416865 0.56004471 -0.34950453 9.2152316e-39
-1.3233865 0.31858864 -0.28729454 1.6951711e-38
-0.50635713 -0.073798381 0.70267695 1.0612249e-38
-1.0506929 0.092785411 0.017559275 1.1247479e-38
-0.41985601 0.27920225 0.26815438 4.2406809e-39
-0.51486516 0.30748299 0.018919848 2.0742594e-38
-1.2923696 0.34801406 -0.83404797 1.4103028e-38
-0.3884632 0.29805875 0.26495036 9.1997753e-39
-0.25704059 0.24086116 0.40768212 9.9387892e-39
-0.55106813 0.32219791 0.021142812 1.8987615e-38
-0.47097769 0.37120363 0.0441809 1.3249491e-38
-0.33113974 0.23744798 0.42540374 1.1409896e-38
-1.0482233 0.038212426 -0.0010380549 1.2993432e-38
-0.52236372 0.31943774 0.02081573 1.981849e-38
-0.41839775 0.35982841 0.07002411 1.3704681e-38
-0.97068137 0.034430772 0.11157284 9.8598709e-39
-0.18722552 0.19123271 0.44562483 6.4613312e-40
-0.29129088 0.244023 0.40242234 1.0758746e-38
-1.2861236 0.10555374 -0.3133162 1.2809743e-38
-0.62281513 0.23745908 0.35098165 1.3273316e-38
-0.012796311 -0.10328095 0.52897745 1.4747688e-38
-0.47438025 0.1920695 0.41446295 1.4849274e-38
-1.4605179 0.18527995 -0.54998326 1.24352e-38
-0.43614018 -0.12775192 0.77484906 9.8732491e-39
-0.56844223 0.31241259 0.13426971 2.0655787e-38
-1.4717426 0.29386169 -0.5248642 1.5386186e-38
-0.99485803 0.31290776 0.02514682 9.4017486e-39
-0.97050172 0.039681088 0.11507411 1.040871e-38
-0.62459809 -0.11544687 0.50380498 6.6413504e-39
-1.3443406 0.61106926 -1.0490483 1.0306833e-38
0.015485588 -0.037645712 0.52121079 1.3460234e-38
-0.0047862921 0.034908537 0.55195302 1.2812358e-38
-0.73135811 0.40623957 -0.077099517 1.1674257e-38
-0.59860462 0.11003675 0.52295649 1.0698343e-38
-1.7169831 0.31470042 -0.8755455 1.4090762e-38
-1.068018 0.57025999 -0.6748929 8.9210009e-39
-1.3461425 0.15347393 -0.39249581 1.2161516e-38
-0.3247616 0.16415152 0.46649241 2.1749397e-38
-0.38186806 0.33392346 0.16144666 1.0852059e-38
-0.66148329 -0.0018519565 0.52951229 1.1248981e-38
-1.162483 0.53536457 -0.23860092 8.3879694e-39
-0.93891793 0.1131152 0.19610757 1.2909549e-38
-0.95527405 0.15478866 0.1877657 1.1057324e-38
-1.3635018 0.19729236 -0.39910898 1.1330279e-38
-0.2056195 0.24589123 0.38763767 1.0306133e-38
-0.77315623 0.38637051 -0.029506626 1.0758765e-38
-0.21902354 -0.080739096 0.7001614 8.1070567e-39
-1.0529484 0.61587715 -0.82775313 1.3156587e-38
-1.39556 0.41498053 -0.89505601 2.0037439e-38
-0.90848529 0.067620613 0.21755974 1.1331038e-38
-0.7031945 0.016561417 0.47892952 1.3834379e-38
-1.4247169 0.1161046 -0.51999569 1.2528491e-38
-0.22658834 0.25737858 0.37050939 1.1038283e-38
-1.3341026 0.3697885 -0.31930774 1.1407046e-38
-1.32813 0.20943716 -0.33625931 1.2807592e-38
-1.4555029 0.083649531 -0.58555257 1.2709638e-38
-1.3459154 0.13609637 -0.3975243 1.2435592e-38
-0.55653661 0.272719 0.12717539 2.129647e-38
-0.57683021 0.30895489 0.12564082 2.3509513e-38
-0.66261917 -0.0068843081 0.52444142 1.1808619e-38
-0.54993951 0.43992475 -0.15899119 1.2599435e-38
-1.0962529 0.53931069 -0.60687369 9.6729853e-39
-0.53979248 -0.027114935 0.67326361 1.0431487e-38
-0.76187712 -0.049760021 0.36801422 1.2267429e-38
-1.3212534 0.37083498 -0.29382059 8.272728e-39
-1.2954398 0.31879881 -0.83834404 9.7439317e-39
-1.3387009 0.26421258 -0.32909998 1.5755691e-38
