# .PCD v0.7 - Point Cloud Data file format
VERSION 0.7
FIELDS x y z rgb
SIZE 4 4 4 4
TYPE F F F F
COUNT 1 1 1 1
WIDTH 987
HEIGHT 1
VIEWPOINT 0 0 0 1 0 0 0
POINTS 987
DATA ascii
-0.52442706 -0.066791095 0.67411339 9.3197222e-39
-0.17768094 0.25642928 0.37049016 1.0397595e-38
-0.2559177 -0.15828162 0.71104026 8.6646362e-39
-0.25044027 0.27134335 0.32586244 1.0950757e-38
-0.15523019 -0.11902024 0.63988286 9.0323397e-39
0.019003071 -0.15403548 0.48567045 1.2076946e-38
-0.10515766 0.22527455 0.45109257 9.3866902e-39
-0.065149143 -0.14846641 0.54423696 1.115536e-38
-0.64971101 0.15839972 0.42494467 7.5658416e-39
-0.78550631 0.031592291 0.39494276 9.2185092e-39
-0.0092558656 0.059432138 0.56072962 1.2445369e-38
-0.77206171 -0.04368449 0.38205177 9.3070951e-39
-0.47346473 0.15553886 0.40143615 1.7332463e-38
-0.27693474 0.18606861 0.44722858 1.3545018e-38
-0.21546438 0.17888929 0.6032083 9.4756237e-39
-0.06800665 0.21421874 0.48324123 3.2286421e-39
0.01945249 -0.14871182 0.48737699 1.4931003e-38
-0.21227209 0.24032998 0.42177185 1.1224467e-38
-0.047218405 -0.019406402 0.57802367 1.2262777e-38
-0.23842131 0.23278369 0.43027937 1.1685836e-38
0.021594789 0.039747752 0.54303348 1.2262059e-38
-0.31647599 0.17942508 0.44926825 1.8984308e-38
-0.20633481 0.23122679 0.42490119 1.012389e-38
0.021460194 0.089835964 0.54566401 8.7471012e-39
-0.25940791 -0.06137741 0.74729776 9.8617248e-39
0.057543151 -0.016073791 0.48582596 1.4104487e-38
-0.14413993 0.20759776 0.51700002 6.0665335e-39
-0.32638365 0.16901582 0.46104947 2.0925775e-38
0.070629478 -0.082778648 0.46409196 1.4840254e-38
0.080757499 -0.079158336 0.456 1.5945859e-38
-0.40420929 -0.057691149 0.83805251 1.0889238e-38
-0.46293074 0.15208006 0.38638932 1.383587e-38
-0.21882659 0.17879565 0.45346954 1.8246278e-38
-0.14986239 0.23763351 0.4116275 9.1093747e-39
-0.2160641 0.010658436 0.73509938 1.0503833e-38
0.097173415 -0.01847098 0.458 1.5486692e-38
0.0231295 0.075587675 0.53991908 1.1527007e-38
-0.023398196 0.0058622602 0.56630337 1.2447168e-38
0.04235062 -0.091078714 0.48591042 1.2907411e-38
-0.27576047 0.24265052 0.41512302 1.0950047e-38
-0.13334614 0.17536041 0.5972569 8.0012195e-39
0.066218294 -0.023012416 0.48475704 1.5301581e-38
-0.62270385 0.057587348 0.59489238 6.2664512e-39
-0.030386418 -0.13417915 0.53439683 1.170889e-38
-0.61631835 -0.04632036 0.56153554 6.7288741e-39
-0.29157183 0.18116528 0.4473449 1.8529116e-38
-0.25133082 0.22535563 0.43125832 8.1895329e-39
-0.76087195 -0.013735894 0.40326986 8.7571821e-39
-0.20957801 -0.096872628 0.69005311 8.9419167e-39
-0.30607116 0.22298098 0.46783733 1.1501404e-38
-0.07329569 -0.12318848 0.56844234 1.3000328e-38
-0.67298406 0.038925048 0.52061051 8.3005158e-39
-0.0054026684 0.094996713 0.54824865 6.6190263e-39
-0.43102247 -0.053545792 0.7963081 9.1371162e-39
-0.45582765 0.14863777 0.40125734 1.2911759e-38
-0.42072099 -0.21390332 0.75958371 9.786115e-39
-0.37770632 0.25590783 0.35606986 9.1101384e-39
-0.19271873 0.16840629 0.61111069 9.2001284e-39
-0.11134456 0.21815962 0.46858531 9.0193272e-39
-0.21597783 0.18370414 0.46057299 1.9907342e-38
-0.17275257 0.23850223 0.40732473 9.1950865e-39
0.078986496 -0.12747326 0.44600001 1.5760394e-38
0.11732545 -0.16260117 0.40454063 1.2812669e-38
0.045279678 0.078546382 0.52700001 1.5758966e-38
0.015177589 0.20976394 0.51414073 8.5551317e-39
-0.0015525838 0.11327223 0.54563862 7.3540354e-39
-0.23563516 0.18427213 0.44927943 2.0556309e-38
-0.30754825 0.2567293 0.34393442 7.8197345e-39
0.081372961 0.0918727 0.49900001 1.4932077e-38
-0.13914977 -0.13588828 0.61682224 9.125257e-39
-0.44576779 -0.11672679 0.75595552 8.4038798e-39
-0.52279365 0.30795565 0.22675467 1.0486532e-38
-0.48536408 -0.019042531 0.73000801 9.04458e-39
-0.13184746 -0.16387387 0.59711593 8.4798876e-39
-0.48098838 0.15731913 0.38007048 1.6134258e-38
0.14802736 0.0036822725 0.41999999 1.4748061e-38
-0.64445132 0.016483011 0.56354189 1.1252221e-38
0.10804313 -0.069729969 0.43700001 1.5944436e-38
-0.2921721 0.15729088 0.64867651 9.2926771e-39
-0.017657373 -0.12546028 0.52999997 1.4838805e-38
0.013141118 0.058272954 0.55458808 1.1893644e-38
-0.10067143 -0.03603553 0.62125695 1.2810546e-38
-0.50898468 -0.10144377 0.66288334 8.7611632e-39
0.01737031 0.20435297 0.52974075 9.4730845e-39
0.1480561 0.15311302 0.46089607 1.3641335e-38
-0.53330886 -0.19144511 0.62611836 9.1324625e-39
-0.093387045 0.22329693 0.4598029 9.5674535e-39
-0.64156246 -0.017418772 0.55515623 1.0976354e-38
-0.27981153 0.24985769 0.36992568 8.3689384e-39
0.041325994 -0.041368235 0.49683985 1.5944787e-38
-0.67477405 0.028546186 0.52668113 1.1342248e-38
-0.016179603 -0.029194318 0.54888433 1.1799999e-38
-0.53575319 -0.16820826 0.62210178 8.4849239e-39
-0.63005316 0.027086094 0.56439042 8.4805728e-39
-0.67228293 0.056391101 0.53589177 9.8617304e-39
-0.33657154 -0.19010213 0.76907897 8.3919925e-39
-0.34622687 0.17434281 0.45585188 2.2396969e-38
-0.036333282 -0.069433965 0.55552888 1.5760394e-38
-0.17071444 0.25051373 0.38932297 9.6575164e-39
-0.42523342 -0.035744533 0.80934954 9.3273228e-39
-0.025522228 0.058223356 0.58459377 1.1522338e-38
-0.41332984 -0.19534603 0.77297711 8.5868263e-39
-0.22163689 0.17784509 0.44916233 2.0370466e-38
-0.48348978 -0.076635808 0.72217476 8.1200846e-39
-0.57890546 -0.010473105 0.61684793 8.485263e-39
0.00093985623 -0.036654394 0.53600001 1.5485587e-38
0.045733303 0.12205111 0.50989294 8.8295326e-39
0.14117832 0.0037348764 0.426 1.5208313e-38
-0.49062726 0.015632097 0.72049898 5.4392115e-39
-0.1293432 0.10118905 0.66532952 6.7141114e-39
0.13923214 0.029839136 0.439152 1.4195956e-38
-0.2137579 -0.15249814 0.67412853 8.7553857e-39
-0.13568524 -0.024435891 0.65616828 1.2534655e-38
-0.19637419 0.22296068 0.45656034 8.7402643e-39
0.12013534 -0.016392125 0.43835354 1.5301581e-38
-0.038069233 0.13780859 0.58735341 7.6248769e-39
-0.2577855 0.23258187 0.41837972 1.0493761e-38
-0.46228305 -0.15477356 0.72402489 1.0611928e-38
-0.62549239 -0.029095313 0.5628227 1.0792689e-38
0.030593131 0.21608146 0.4911828 9.290159e-39
-0.62927938 -0.14179772 0.52151942 9.4936668e-39
0.04235952 0.099212319 0.52115065 1.0584139e-38
-0.06801457 0.21588384 0.48843789 9.2034172e-39
-0.11304554 -0.16905214 0.59042716 8.8500966e-39
-0.29254264 0.24142033 0.3917034 8.1841632e-39
-0.62641799 0.18370497 0.37846443 9.8613745e-39
-0.32164881 0.16024156 0.45921791 1.9263008e-38
-0.050073549 -0.20286343 0.52586973 9.6848964e-39
-0.65733802 0.018654227 0.55324519 1.1896515e-38
-0.5199421 -0.13302419 0.6404025 8.9451845e-39
-0.20491104 0.15764008 0.6745646 8.180566e-39
0.11759556 0.081720352 0.46547431 1.5024275e-38
-0.25273964 -0.10121121 0.73125112 9.8599284e-39
-0.51406235 0.17665295 0.3588877 1.8068931e-38
-0.12876227 0.22856581 0.43779099 8.9213807e-39
-0.45338124 -0.034462914 0.7749458 1.1075077e-38
0.092871673 -0.072989129 0.44660309 1.5854739e-38
-0.14502449 -0.002001784 0.6689558 1.2991693e-38
-0.056818746 0.20420203 0.52238142 9.2890842e-39
0.15155181 0.055041205 0.43000001 1.4748764e-38
-0.24661742 0.22915605 0.4256905 1.012605e-38
-0.25557438 -0.11163917 0.73022962 9.2174526e-39
0.0093986541 -0.1072105 0.50542295 1.290706e-38
-0.46318275 -0.11727954 0.73154676 1.0060201e-38
0.0091050472 0.14025608 0.54983199 5.1471304e-39
-0.21330269 -0.092797838 0.70403057 8.9462173e-39
0.1152948 0.1703354 0.49116895 1.3181824e-38
0.017227544 0.19190459 0.56220984 5.1500269e-39
0.046046566 0.01302188 0.5106644 1.2079451e-38
-0.01308499 -0.17321298 0.50399023 1.1799286e-38
-0.56654859 0.096659705 0.65410417 7.5535957e-39
-0.21457165 0.19704576 0.44733459 1.8337843e-38
-0.061218817 0.20706999 0.51211643 9.7439443e-39
-0.17919984 0.18012206 0.57464105 8.8324445e-39
-0.57943523 -0.093358621 0.59726083 5.9012784e-39
-0.46772522 0.2101417 0.41810217 1.5029746e-38
-0.20383483 0.24592714 0.38258457 9.6621855e-39
-0.39050081 0.2628445 0.31572849 3.780046e-39
-0.32588068 0.25875354 0.34750578 1.0029183e-38
-0.038781971 0.16932802 0.6021198 4.3224116e-39
-0.12173508 0.20269883 0.51980823 8.7377433e-39
0.12699422 -0.012393239 0.43730223 1.4931006e-38
0.10616957 0.10741851 0.48372084 1.5481663e-38
-0.0065585072 -0.0093969805 0.53831089 1.2169145e-38
-0.16123387 0.25654024 0.36476278 1.058488e-38
0.029456198 0.082699589 0.54034191 1.5576007e-38
-0.35267848 0.163119 0.45406222 2.8563087e-39
-0.21517965 0.25871435 0.35661906 1.0306498e-38
0.00095739088 0.11201473 0.546 7.7192502e-39
-0.026228301 -0.065085046 0.55400002 1.5667124e-38
0.039011601 -0.10978463 0.481262 1.5577792e-38
-0.51611966 -0.067031801 0.69047475 1.1437726e-38
-0.81105018 -0.081515886 0.31848434 7.8341272e-39
-0.15850282 -0.017078189 0.67508227 1.1243593e-38
-0.14801775 0.18184553 0.59216923 7.9050539e-39
-0.30998853 0.25603738 0.34462312 9.6600598e-39
-0.016317284 0.033029731 0.57049787 1.4656211e-38
-0.46713191 -0.14872701 0.72358185 1.1167253e-38
-0.13705021 -0.1480948 0.60558319 9.0326956e-39
-0.11164372 0.20564596 0.51148903 8.7355377e-39
0.0073852106 0.076203786 0.56531936 1.2445003e-38
-0.15436433 0.24927536 0.37369034 1.085752e-38
-0.013358064 0.04384093 0.56584495 1.5301228e-38
-0.12982115 0.11344731 0.667 6.3409722e-39
-0.39845145 0.23857023 0.39938954 8.649498e-39
-0.545578 0.098598629 0.66224915 4.6915669e-39
-0.16246821 0.053000774 0.67094165 6.8048595e-39
-0.28297612 0.16237116 0.65002984 8.0923361e-39
0.049101215 0.10192161 0.51558113 1.1504981e-38
-0.14303876 0.21984911 0.48041141 9.5663998e-39
-0.52373445 -0.049133629 0.67684603 7.9378667e-39
-0.032366429 -0.16001166 0.52469313 1.2076591e-38
-0.77798462 0.048557322 0.41029343 9.1238095e-39
0.12209013 -0.11775557 0.412 1.5023919e-38
-0.14958985 0.21028696 0.49763742 9.0081743e-39
-0.28873134 0.2281985 0.42903185 9.3827246e-39
-0.013645723 -0.018498221 0.53929949 1.1894716e-38
-0.2651934 -0.14567539 0.72566158 8.9408475e-39
-0.15039507 0.23284519 0.42830625 9.7540462e-39
-0.5444926 0.29937506 0.26211056 7.2665635e-39
0.026702685 0.21668579 0.49034166 9.290159e-39
-0.25667983 0.25445759 0.35331449 1.030613e-38
0.039176125 0.11273772 0.50983286 6.6212067e-39
-0.1625298 0.24641553 0.39246735 1.0217547e-38
-0.35372758 0.13617466 0.70578837 3.6792156e-39
0.10078592 0.090633161 0.48854232 1.2630103e-38
0.045279033 -0.13071735 0.47233236 1.5113953e-38
-0.31210253 0.1858203 0.44669226 1.8338944e-38
-0.16453591 0.19307545 0.54406244 9.2937884e-39
0.020908004 0.022114746 0.53328139 1.5576729e-38
-0.13389498 -0.15323952 0.60058045 8.7582667e-39
-0.65686518 -0.087609068 0.50364149 9.0330488e-39
-0.24577814 0.17439438 0.44817972 2.0828926e-38
-0.32515967 0.17503108 0.44847992 1.8341739e-38
-0.16056775 -0.074120201 0.65764302 9.493301e-39
-0.093264222 -0.14473756 0.58487648 1.0876198e-38
0.033612583 0.10292204 0.5191322 5.6988777e-39
-0.45694953 -0.095721185 0.75000024 7.7581474e-39
-0.83504558 -0.026821617 0.29861191 8.6620914e-39
-0.14576031 0.2229812 0.45603234 8.5572449e-39
0.012467945 -0.097040132 0.50509262 1.1985467e-38
0.0095759043 -0.092420481 0.5105707 1.6128096e-38
-0.5441134 0.1729812 0.40273577 1.0876603e-38
0.068109259 0.16707665 0.50035667 5.9783428e-39
-0.0088318707 -0.064977244 0.53557718 1.1798211e-38
-0.29695585 0.16355176 0.45573121 1.9539651e-38
-0.62690002 0.039566919 0.576177 7.7487937e-39
-0.57487696 -0.12597248 0.58460945 6.2729406e-39
-0.78045297 0.10440531 0.42585069 1.0505633e-38
-0.55080551 -0.073608831 0.64220369 1.0055489e-38
-0.15139997 0.21634699 0.46764293 9.3841847e-39
-0.56411552 -0.044075221 0.6219213 8.8500966e-39
-0.17980927 0.0059439102 0.70183176 9.4940045e-39
-0.25366491 0.180912 0.45087132 1.8428521e-38
-0.21549065 0.21815598 0.46338391 1.0119583e-38
-0.016601112 0.19527675 0.54648519 8.3732418e-39
0.037673097 0.094045974 0.53323972 1.0499541e-38
-0.76085925 0.12213299 0.42366675 4.2334418e-39
-0.47323114 0.23418364 0.40544367 8.6487721e-39
-0.8302725 0.020228794 0.33592156 9.032648e-39
-0.35705003 0.21011542 0.46843085 4.1347862e-39
-0.14811282 0.016448058 0.67657185 1.4743375e-38
-0.021818342 -0.097708225 0.54100001 1.4932074e-38
-0.63481295 -0.022731312 0.56425095 1.1709959e-38
-0.658678 -0.13423608 0.48783156 8.4823903e-39
0.16907726 0.15246034 0.44538265 1.318181e-38
-0.18328857 0.23228124 0.42739016 1.0677073e-38
-0.31281325 0.17196703 0.45012149 2.1843798e-38
-0.47742349 -0.0086053433 0.75109249 9.0442297e-39
-0.1743599 -0.20077683 0.62466127 8.1121659e-39
-0.23761797 -0.24573161 0.66090703 7.4668245e-39
-0.23008478 0.19242208 0.55804688 9.01933e-39
-0.069466069 0.22979157 0.45956251 9.5682088e-39
-0.11671734 -0.095821835 0.61098617 1.0326655e-38
0.022066036 0.030933945 0.53989083 1.1803602e-38
-0.1996877 0.23932387 0.40574461 1.0493764e-38
-0.35742486 0.16696039 0.61562687 6.9889004e-39
0.14028056 0.065877609 0.442 1.4840607e-38
-0.010458239 -0.012469173 0.54703736 1.4379647e-38
-0.24449486 0.17592478 0.45618638 2.110587e-38
0.038497392 -0.11651008 0.48048195 1.5484883e-38
-0.52198732 -0.17282692 0.64166009 1.0054057e-38
-0.66091734 -0.061464991 0.49955529 8.0250429e-39
0.14724012 0.1427622 0.45891893 1.2721921e-38
-0.091682136 0.013743884 0.62415516 9.4972695e-39
-0.24555649 0.17910533 0.44950485 2.0647778e-38
0.066968262 0.028700683 0.49599999 1.5853683e-38
-0.19062862 0.24508823 0.39980471 1.0218268e-38
0.17005447 0.16251449 0.44606721 1.2997419e-38
-0.16620895 0.20682074 0.50334221 7.2686893e-39
-0.027609114 -0.11296343 0.53220731 1.3827533e-38
0.044181306 0.036049068 0.51511824 1.6130253e-38
0.0047869543 0.016275644 0.546 1.6309992e-38
-0.49085289 -0.1034227 0.68806744 8.7643876e-39
0.097755566 -0.061781518 0.44600001 1.6037348e-38
-0.23644237 0.24278998 0.40106025 1.0768176e-38
0.017580021 0.14810288 0.54079843 5.7031811e-39
-0.039380141 0.20664665 0.51138842 9.6582577e-39
0.01532176 -0.078411363 0.514 1.6128099e-38
-0.52956641 -0.1531699 0.64360702 1.1349125e-38
-0.43685603 -0.11366474 0.78100002 7.0202293e-39
0.14220035 -0.073246248 0.40988982 1.3827179e-38
0.044261627 0.10193818 0.51547337 8.8367759e-39
-0.23306988 0.18172872 0.45024016 2.1563576e-38
-0.70139891 0.058286879 0.50564456 1.1524492e-38
-0.11291601 -0.04193617 0.63120341 1.2533955e-38
-0.59896725 0.044906136 0.63332468 1.0884555e-38
-0.56312722 -0.03921907 0.63877487 1.0699425e-38
-0.25042084 0.22522061 0.45866463 1.1959498e-38
-0.2919274 0.26929587 0.31688231 9.9362865e-39
-0.03103381 0.044017613 0.58601266 1.096628e-38
-0.18612991 0.25686097 0.36133593 1.0400469e-38
-0.7941469 -0.040528014 0.35193703 9.7677019e-39
0.11875322 -0.025728183 0.43560523 1.5299783e-38
-0.26598081 0.17582507 0.44969031 2.0181988e-38
-0.21778947 -0.22424348 0.65852356 7.3771175e-39
-0.22600348 0.23644269 0.42765048 1.0857483e-38
0.10098018 -0.10553569 0.433 1.5301218e-38
-0.26745906 0.26095197 0.3694236 1.0946788e-38
0.10846823 -0.043819405 0.44391033 1.4381069e-38
0.0018187308 -0.11352295 0.51334763 1.4931356e-38
-0.025561167 0.20845293 0.5078283 9.3855916e-39
-0.067784145 0.20560008 0.4932203 9.6629296e-39
-0.15803783 -0.11958212 0.62956929 9.6762658e-39
-0.18615726 0.22992368 0.43442923 1.0950063e-38
-0.23464835 0.1887182 0.46208036 2.2208226e-38
-0.15468338 0.19321986 0.53663325 8.8342171e-39
-0.11318077 -0.032879978 0.63284439 1.4656918e-38
0.050219275 -0.16571392 0.46072966 1.3643136e-38
-0.13668732 0.19124912 0.54867899 8.5580212e-39
-0.15792796 -0.016730059 0.67828536 1.0692207e-38
-0.49493903 0.19248232 0.37626609 1.1706735e-38
-0.026145132 0.19350232 0.55340582 7.9101308e-39
-0.12166972 0.22195402 0.45881549 9.9383815e-39
-0.24906038 -0.097616635 0.72976094 9.3103321e-39
-0.011971306 0.069621138 0.57297355 1.548273e-38
-0.53925645 0.30909541 0.23201978 8.0051823e-39
0.050717931 0.019990789 0.50938916 1.2907779e-38
-0.023744205 0.19432099 0.54288763 8.0001629e-39
-0.037569188 0.024631929 0.58538115 1.2998527e-38
-0.14074497 -0.10489517 0.63764226 1.0965535e-38
-0.33498624 0.23709282 0.41341534 1.0767107e-38
-0.46505851 -0.15664463 0.71456438 7.663798e-39
-0.13644202 -0.042481355 0.64897013 1.2257344e-38
-0.57287502 -0.16785541 0.58315635 9.78395e-39
-0.25662988 0.18075415 0.44965991 1.8245179e-38
-0.036859546 -0.16161494 0.53899997 1.4746594e-38
-0.25046724 0.25580162 0.34463057 7.4487617e-39
-0.58282626 -0.16506962 0.56812543 9.3125251e-39
-0.029014111 0.060995363 0.5889551 1.1060644e-38
0.074620962 0.039331999 0.49110252 1.6036629e-38
-0.48160136 0.23846449 0.42562801 1.0485475e-38
0.089954525 -0.047802493 0.45545048 1.5851885e-38
-0.21803284 0.22507828 0.44552079 1.0954697e-38
-0.60404283 -0.13931751 0.55566442 1.1343007e-38
-0.68299514 0.018603392 0.51813745 1.1526997e-38
0.099468127 -0.060133632 0.4435716 1.5760388e-38
-6.6313718e-05 0.12270953 0.54880095 7.4444485e-39
-0.024706366 0.057342686 0.5840922 1.2628669e-38
-0.2508457 0.17486358 0.45413363 2.0552665e-38
0.15996903 0.17402951 0.46157706 1.2814104e-38
-0.3058992 0.088154472 0.80688113 4.2284013e-39
-0.079428956 0.20367421 0.51341617 8.0945263e-39
-0.037449904 0.0047510355 0.57956856 1.4195593e-38
0.19798957 0.16321073 0.42197075 1.1891441e-38
-0.42897463 -0.10954826 0.76555991 8.5875592e-39
-0.10517784 0.01826036 0.64336151 7.0090189e-39
0.019847449 0.034969315 0.53899997 1.6402891e-38
0.1628488 0.14971377 0.44770703 1.2443539e-38
-0.2172198 0.18192625 0.453958 2.0003154e-38
-0.0066035418 -0.051884972 0.53799999 1.5209382e-38
-0.097894304 0.20674743 0.4912788 4.6859841e-40
-0.49150226 0.19864459 0.36814779 1.2821702e-38
-0.10128682 -0.0082674073 0.63211834 1.3084259e-38
-0.73685318 -0.026843695 0.43114251 9.8591941e-39
0.14117832 0.0037348764 0.426 1.5208313e-38
-0.38738006 0.26394179 0.32558936 4.1481167e-39
-0.2826398 0.23067912 0.45285863 1.1318827e-38
0.055529591 -0.001266584 0.499504 1.3184367e-38
0.056857713 0.18151912 0.52552384 7.0814268e-39
-0.49972901 0.17920572 0.35867608 1.8536774e-38
-0.28153571 0.18640427 0.46097663 2.0923268e-38
0.060895227 0.1698508 0.51812583 5.7914334e-39
-0.77281827 0.01083185 0.40884909 9.955333e-39
0.0075949435 0.08256416 0.559735 8.6624712e-39
-0.39731565 -0.1748039 0.79502881 9.1429148e-39
0.14585656 -0.091422059 0.398 1.4746612e-38
-0.50116539 0.057186276 0.72027665 7.4589057e-39
-0.028946247 0.040086642 0.58250928 1.2907408e-38
-0.22131437 0.1701766 0.45275402 2.0551614e-38
-0.34789884 0.17296506 0.4412604 1.077677e-38
0.11274371 -0.12356631 0.41688651 1.4471464e-38
-0.27065894 0.24583939 0.40840015 1.0667324e-38
-0.019323163 0.057969488 0.57999998 1.4838089e-38
0.1093844 -0.1293596 0.41686824 1.4195944e-38
-0.47914621 0.21580426 0.4118275 1.6412682e-38
-0.039435826 -0.134206 0.54075629 1.4839514e-38
0.019479221 0.10110644 0.52899998 8.2792483e-39
-0.44529223 -0.19421057 0.72789568 9.0442325e-39
-0.22582921 -0.14466527 0.69060487 8.5745859e-39
-0.46600673 0.24992651 0.36440015 9.2937856e-39
-0.19526508 0.24225035 0.39413247 9.7493589e-39
-0.2274733 0.22327581 0.44918543 9.1946773e-39
0.11009118 -0.072128706 0.433 1.5759691e-38
-0.26896098 0.2524288 0.37234992 1.0674908e-38
-0.089616351 0.22794969 0.46892485 9.1071915e-39
0.16625461 -0.075323515 0.38699999 1.4103392e-38
-0.0054124109 -0.13727997 0.50978905 1.2444637e-38
0.085747689 -0.0045042168 0.47052675 1.5854036e-38
0.042939983 -0.072677255 0.49136245 1.4381072e-38
-0.045805853 0.064775936 0.59719503 9.3960803e-39
-0.11206063 0.24726583 0.39696148 1.0305397e-38
-0.40132892 -0.25271344 0.76903141 9.5084519e-39
-0.33752322 0.22053339 0.45528045 1.0213599e-38
-0.19915408 0.18688318 0.56024873 9.1976313e-39
-0.49190187 -0.048724528 0.72941941 1.107256e-38
-0.37014481 0.27999848 0.31597111 9.6600331e-39
-0.17349 0.023325732 0.69815153 1.0969154e-38
-0.49086362 0.26238364 0.36144596 1.0307181e-38
-0.41140574 -0.23608048 0.7601158 9.8765113e-39
-0.054684632 0.21917264 0.45874459 6.8087677e-39
0.090594426 0.02742767 0.47400001 1.5485623e-38
-0.5203867 0.12696655 0.50340462 1.2626152e-38
-0.41693532 -0.027075959 0.81845671 9.1371288e-39
0.11983459 0.15283361 0.48395234 1.4286001e-38
-0.27862388 0.17974477 0.45245928 2.1570092e-38
0.061133988 0.047506645 0.5099085 1.2723032e-38
0.026629303 0.20421346 0.53406453 8.27747e-39
-0.55560505 0.087387659 0.64492232 3.9583206e-39
-0.39244998 -0.12547769 0.82183611 9.6017461e-39
0.098621778 -0.097092755 0.43599999 1.5117187e-38
-0.70231736 -0.050008919 0.46795705 1.0690397e-38
0.036555678 -0.039316364 0.50596899 1.5300512e-38
-0.022423286 -0.038022093 0.55599999 1.4470751e-38
-0.63099939 0.28213671 0.28999728 1.0023408e-38
-0.18493271 -0.077589147 0.68101484 9.9521268e-39
-0.095450059 -0.19346574 0.5690347 1.0695081e-38
0.0072972924 0.18370008 0.55906028 7.5438496e-39
-0.66567761 0.031722814 0.54633397 1.0233031e-38
-0.48984659 -0.18563442 0.67579359 9.9618742e-39
-0.26305076 0.18080626 0.44819078 1.806046e-38
0.10384008 -0.14360863 0.41999999 1.5023909e-38
0.057047125 0.21623406 0.49665278 9.1976046e-39
-0.067000628 0.21795508 0.48168907 5.7993592e-39
-0.2722255 0.23195262 0.43242565 1.1134811e-38
0.16017886 -0.016373839 0.40599999 1.4747694e-38
0.079446644 -0.0049522938 0.47910202 1.2907411e-38
-0.22367471 0.22700156 0.43963438 1.1132662e-38
-0.45466492 -0.027278403 0.7767573 8.4010127e-39
-0.77178258 0.082352556 0.42519298 9.2167085e-39
-0.0047162976 -0.14746131 0.50660276 1.2170567e-38
0.16342276 -0.024548484 0.40000001 1.4931707e-38
0.13812882 -0.11925654 0.39647934 1.4376751e-38
-0.34225571 0.22254501 0.46366537 1.1502123e-38
-0.14958985 0.21028696 0.49763742 9.0081743e-39
-0.27733663 0.23991738 0.40206492 1.0396546e-38
-0.32188317 0.21108568 0.46682382 8.553673e-39
-0.029206395 -0.13093448 0.53410572 1.1617043e-38
-0.24110541 0.21662773 0.46214849 1.0580895e-38
0.15850069 0.052780099 0.42931154 1.4102338e-38
-0.014565967 0.12895598 0.57269448 6.1612851e-39
-0.018723123 0.023328817 0.56424516 1.5299783e-38
-0.3494184 0.22584835 0.42167407 9.3866874e-39
0.08749944 -0.14775085 0.43105009 1.4838442e-38
-0.68986893 -0.021045513 0.49566916 1.0230493e-38
-0.17422968 0.23252904 0.41907853 1.0582347e-38
-0.017061355 -0.094658874 0.53181058 1.548453e-38
-0.22909628 0.17249364 0.46140736 1.7507935e-38
-0.1014851 0.1884239 0.56187677 9.6611261e-39
-0.21327221 0.18334314 0.58352607 9.0089226e-39
-0.37666634 0.13458236 0.71142191 5.5202387e-39
-0.55309874 0.31140915 0.22070284 7.265832e-39
-0.049007691 0.16157788 0.6050874 6.2517039e-39
0.091199301 0.11985049 0.47212461 8.9245981e-39
0.075258031 -0.092574544 0.45737746 1.5114671e-38
-0.14584909 0.060308792 0.66424567 6.7126484e-39
-0.066228732 0.2076153 0.52367014 8.2770959e-39
-0.24289465 0.22737674 0.427784 1.0399416e-38
-0.46243998 0.12856954 0.41889048 1.0142633e-38
-0.18950634 0.23044191 0.43091032 1.0211063e-38
-0.050977655 -0.20150539 0.53450227 1.373318e-38
-0.08605624 0.2227629 0.46407998 9.1104859e-39
-0.1714182 -0.13623637 0.65471458 1.0691802e-38
-0.40739122 -0.10726081 0.81690264 1.0431484e-38
-0.61053276 0.19130261 0.34740815 1.2075482e-38
-0.12668844 0.22032933 0.47491655 9.388135e-39
-0.25340241 -0.13932279 0.71535736 8.7532151e-39
0.016005585 -0.052488651 0.51550877 1.5761121e-38
-0.22060159 -0.072506011 0.71270823 9.7684586e-39
-0.3781527 0.24792762 0.3846052 1.002741e-38
-0.50017124 -0.16445835 0.67399937 1.0515044e-38
-0.7552855 -0.062353972 0.38790026 8.9426062e-39
0.021372857 0.070330538 0.55079651 1.2445374e-38
-0.22171894 0.19417973 0.46129686 1.8986809e-38
-0.021826101 -0.1114116 0.53469282 1.5021401e-38
-0.3706052 -0.036834396 0.84812188 9.5034002e-39
-0.63758308 -0.07936383 0.50583345 5.8987477e-39
-0.34298736 0.27793244 0.32278362 9.8458761e-39
0.069304161 -0.16884257 0.44058627 1.456365e-38
0.077729262 -0.088947922 0.45699999 1.5760038e-38
-0.46848205 0.038933124 0.74949902 5.8062143e-39
-0.11427431 0.19560608 0.55085516 8.7388027e-39
-0.57629997 -0.023283504 0.61590475 8.4834595e-39
0.11317814 0.20319518 0.51148242 1.1524123e-38
0.043723073 -0.16558002 0.46069643 1.1432646e-38
-0.022431294 0.093547396 0.55925119 8.5507709e-39
-0.1982756 0.25904694 0.35962078 1.0488739e-38
0.14292477 -0.13882168 0.38999999 1.4378187e-38
-0.086735532 -0.13110287 0.57941461 1.2534277e-38
0.043255292 -0.0052600726 0.50705558 1.2629045e-38
0.019841498 0.045034774 0.54535121 1.2263133e-38
-0.23762999 0.18114534 0.45165721 2.1110201e-38
0.039765589 0.20063601 0.53507447 7.5434629e-39
-0.17868598 -0.04643786 0.68022841 9.9524617e-39
-0.3216038 -0.15127419 0.77397567 8.483112e-39
-0.51203263 0.053008255 0.68647712 5.250521e-39
-0.56595856 -0.013763575 0.65173697 1.1529903e-38
-0.010200856 -0.04529193 0.53842103 1.5208666e-38
-0.007020866 0.07722953 0.57200003 1.5757153e-38
0.18710712 0.15917906 0.43565798 1.2719404e-38
0.11375313 -0.14117815 0.41341645 1.364277e-38
-0.58512276 -0.17714649 0.56820667 1.1161117e-38
-0.19571558 -0.17458615 0.66037506 8.6649991e-39
0.10704015 -0.13509205 0.421 1.4748762e-38
-0.48434323 -0.13692926 0.69872671 8.9523718e-39
-0.20472804 0.22533982 0.44354412 9.1057467e-39
-0.090418041 0.21440825 0.48896846 3.3147659e-39
-0.44756249 -0.16256574 0.74657929 1.0523683e-38
-0.37516797 -0.19750971 0.79169202 8.8551371e-39
-0.71010721 -0.025285348 0.46645913 1.0135801e-38
-0.42813399 -0.19487625 0.74943942 8.9574515e-39
-0.044749677 0.043730345 0.59368253 1.5668923e-38
0.17327183 0.12374528 0.43708596 1.3364401e-38
-0.041921876 -0.032571889 0.56973255 1.3183291e-38
0.10870454 0.18861014 0.50186419 1.3272924e-38
-0.29000154 0.23350032 0.43777329 1.1593605e-38
0.049669717 0.084121682 0.53093117 1.2722666e-38
-0.35239771 0.21905512 0.47198933 1.0214961e-38
-0.28986192 0.21840633 0.46464887 7.3529536e-39
-0.027757928 -0.015870089 0.56328285 1.3550281e-38
0.15275301 0.068732791 0.43375292 1.3089631e-38
-0.14579175 -0.20048022 0.60836589 7.1027209e-39
-0.6917119 -0.00066401798 0.49938574 1.1433725e-38
-0.27905303 0.23439991 0.40913281 9.4792488e-39
0.041325994 -0.041368235 0.49683985 1.5944787e-38
-0.55272776 -0.12568018 0.60192984 8.0228765e-39
-0.25186548 0.2338427 0.4272134 1.1318129e-38
-0.25869387 0.19306606 0.53445393 9.0186308e-39
-0.54582661 -0.14135839 0.61134154 6.7350076e-39
-0.34838682 0.23062029 0.42923701 1.0762082e-38
-0.024412524 -0.015633158 0.56137776 1.2816287e-38
0.056601416 -0.15406783 0.45515022 1.4838795e-38
-0.090171352 0.21239376 0.49317992 8.3660293e-39
-0.18455288 -0.06195382 0.688546 1.0598535e-38
0.024876667 -0.11187214 0.49268964 1.2723382e-38
-0.21248938 0.23623724 0.40636614 8.3660265e-39
-0.74531746 -0.065338261 0.40414456 8.2022119e-39
-0.39898902 0.24432619 0.38504449 8.8324571e-39
-0.66630518 -0.0049763154 0.52689153 1.0048274e-38
-0.34064707 0.17599563 0.58432299 1.0028119e-38
-0.20223886 -0.12086911 0.67987156 9.7695124e-39
0.093183577 0.16292763 0.48471683 6.1634375e-39
-0.0065361061 0.02682765 0.55887818 1.2354254e-38
0.033474263 -0.10494761 0.48147273 1.3734628e-38
-0.16296326 0.22503798 0.45327902 1.0213594e-38
-0.1586653 0.24231635 0.42147726 1.0211779e-38
-0.015416766 0.08590994 0.55370581 1.0397595e-38
-0.24924318 0.21853201 0.45920807 8.550052e-39
-0.13541178 0.22958362 0.43353155 9.3813023e-39
-0.1263271 0.22192131 0.46028852 9.8458705e-39
-0.21631517 0.23273309 0.41329604 8.1862889e-39
-0.47780049 -0.035213165 0.74509025 1.0706289e-38
-0.76776093 0.22836795 0.44122157 4.9648873e-39
-0.33015475 0.18011908 0.59084803 1.1042599e-38
0.08724349 -0.044489905 0.45713308 1.5210822e-38
-0.040361241 0.18605581 0.53870898 4.2309348e-39
-0.26523492 0.24504046 0.391698 1.0855702e-38
-0.43464497 -0.13425741 0.73746884 8.4867273e-39
0.036060221 0.1108065 0.51863098 6.256352e-39
-0.52073264 -0.11699763 0.64568287 8.211567e-39
0.031970337 -0.10889698 0.48811328 1.2723019e-38
0.0013623643 0.19131118 0.55890346 8.0945263e-39
-0.1636164 0.048941173 0.67288786 6.161302e-39
-0.018756794 0.00098719972 0.56300002 1.4746256e-38
-0.3379195 0.23041965 0.42227501 7.7217557e-39
0.094809301 0.084115602 0.48781621 1.511754e-38
-0.054473449 0.20470655 0.51795477 8.7373552e-39
-0.41529641 -0.14803965 0.75566453 8.5814383e-39
-0.034981374 -0.041587833 0.5615716 1.410484e-38
-0.2097522 0.25466219 0.36094671 1.0306861e-38
-0.37697896 -0.058678199 0.85078585 9.8645975e-39
0.11287042 -0.15456778 0.41 1.4377831e-38
0.079742238 0.14833772 0.48899999 7.8135884e-39
-0.18033016 0.17850697 0.59849864 8.552615e-39
-0.17929977 0.23896503 0.41033995 1.0487274e-38
-0.47937396 0.19760628 0.42662156 1.236367e-38
-0.19158028 0.19353917 0.44573969 2.7555694e-40
-0.13117377 -0.13340089 0.62025255 8.5728063e-39
-0.34274092 0.18500391 0.45644265 2.0736346e-38
0.088189252 0.070471689 0.48458084 1.4013013e-38
-0.0096568326 0.0099112652 0.55808091 1.4658717e-38
-0.1039842 -0.19297974 0.57398385 1.078798e-38
-0.50784451 0.011146097 0.72496593 8.2137306e-39
0.0088458434 0.049310803 0.54682082 1.5115046e-38
0.13377696 0.040983692 0.44100001 1.5392335e-38
-0.26320738 0.23054014 0.42651212 1.1041896e-38
-0.1166044 0.005605909 0.65021157 1.2167681e-38
-0.20799939 -0.025688805 0.71351522 1.0779721e-38
0.1268158 -0.16099258 0.39741358 1.2446397e-38
-0.37532738 -0.1386172 0.82770598 9.8678443e-39
-0.34376818 0.23277956 0.43347105 1.0675596e-38
-0.66221362 -0.06492389 0.513372 1.0230163e-38
-0.1824225 0.17345342 0.59704387 9.1083055e-39
-0.23287287 -0.11889274 0.70851851 8.9433671e-39
-0.4951435 -0.12963106 0.69930094 1.0430414e-38
0.0021301024 0.005743972 0.54482281 1.3734297e-38
-0.46418631 0.22966121 0.4248195 6.9928633e-39
0.081371874 0.15030551 0.4959991 5.791446e-39
-0.394014 -0.23821068 0.78844821 7.7592558e-39
-0.10290328 0.18229367 0.57184082 1.5684594e-39
-0.051901363 0.20483038 0.51468545 9.0146581e-39
-0.41198573 0.29176715 0.26745036 9.562797e-39
-0.19465929 0.22514392 0.44600052 8.7359483e-39
-0.47333664 0.048609607 0.74691433 6.3590196e-39
-0.63157779 0.032561503 0.56721467 6.8199963e-39
0.079948306 -0.037128609 0.47066289 1.3090022e-38
-0.53028524 0.21371427 0.35261437 1.3466715e-38
-0.25745147 0.25811306 0.34104407 8.9264156e-39
-0.2417628 0.24702111 0.37417504 1.0121398e-38
-0.56349707 -0.059862781 0.63632286 1.0885243e-38
-0.18362203 -0.053695593 0.68700641 9.9539233e-39
-0.59309119 0.0307019 0.63342875 1.2268556e-38
-0.00033441684 0.032547109 0.55468738 1.2447521e-38
-0.37470314 0.26070207 0.34525526 9.4763649e-39
-0.005169854 -0.054732312 0.52998817 1.4471467e-38
-0.25854331 0.18621738 0.4467009 1.7694937e-38
-0.0014989071 0.08451049 0.55667764 8.9293246e-39
-0.57843101 -0.10945299 0.58397484 6.5477478e-39
-0.50714129 -0.0065059937 0.72570777 1.1536756e-38
0.028901836 -0.023078017 0.51128781 1.5762907e-38
0.005806264 -0.17571454 0.4928405 1.3276148e-38
-0.44735885 -0.013368056 0.79321396 9.6903474e-39
-0.0046133362 -0.19619803 0.49550465 1.4378553e-38
0.1057689 -0.15391198 0.41600001 1.4471452e-38
-0.70294046 0.078428179 0.52136922 1.069436e-38
-0.17422605 0.23256548 0.41916147 9.0135511e-39
0.095978931 -0.090743266 0.43748155 1.5760391e-38
-0.67824322 0.041667216 0.51977319 8.5764034e-39
-0.15614943 0.21468982 0.47565848 8.3750719e-39
-0.32976291 0.18256496 0.5647046 8.74599e-39
-0.25851497 -0.064321399 0.75099075 9.9556959e-39
-0.10597166 0.012390696 0.64382917 1.2440675e-38
-0.013867577 -0.086451992 0.5325008 1.3091798e-38
-0.017282244 -0.026742911 0.55141133 1.253972e-38
-0.0298755 0.070833251 0.58764923 8.7452991e-39
-0.45214188 0.24054043 0.36622539 8.3757627e-39
-0.22231063 0.21790248 0.46299487 7.2636544e-39
0.003111101 -0.095233537 0.51391524 1.2077297e-38
-0.70288932 0.10636776 0.49110872 5.6153337e-39
0.11139947 0.04781644 0.46332976 1.5576373e-38
-0.63218248 -0.13963906 0.52519315 1.0789442e-38
-0.35107353 0.28171775 0.2928755 1.1775142e-38
-0.24361484 0.18980026 0.54714006 9.0200727e-39
-0.48899701 -0.02217111 0.74001235 1.0432228e-38
-0.47306493 -0.16086872 0.68968225 8.0253961e-39
-0.20921656 -0.11610904 0.68815464 9.9528274e-39
-0.16376889 0.22121949 0.45974872 9.3856337e-39
-0.099380456 0.22708611 0.4678486 9.5653138e-39
0.060350321 -0.091235735 0.47100136 1.1986902e-38
-0.17716348 0.23041156 0.43058282 8.8320913e-39
-0.0093980571 -0.02842172 0.54465532 1.3274768e-38
-0.28880346 0.21649228 0.46379951 1.122341e-38
-0.58400202 -0.026226776 0.60648692 8.5753202e-39
-0.16436532 -0.2121571 0.6148271 7.5593634e-39
-0.47359556 -0.11991098 0.72449183 1.0887796e-38
-0.49765003 -0.147644 0.68101627 7.5680094e-39
-0.13421626 -0.088208169 0.63177264 9.3089224e-39
-0.065623641 0.21175864 0.49953881 1.0029188e-38
0.05298306 0.015255511 0.50663447 1.2908143e-38
-0.47793183 -0.094721965 0.70631826 8.6700396e-39
-0.15775751 -0.14943466 0.62454903 8.5731524e-39
0.010629358 -0.089887612 0.51126093 1.3091089e-38
-0.3846072 -0.049293011 0.86330485 9.1360568e-39
-0.25255784 0.1794914 0.46615288 2.1196598e-38
0.055847798 -0.033508681 0.49000001 1.6129181e-38
-0.16566853 0.23623575 0.42105311 9.755477e-39
-0.32327121 0.25080812 0.38572171 1.1501425e-38
-0.55992317 0.0044948771 0.66472518 1.1348032e-38
-0.14271219 0.18999489 0.55773848 8.184166e-39
-0.13847888 -0.17987806 0.61499643 9.1262954e-39
-0.67016006 -0.067515343 0.50071603 9.7720361e-39
-0.25698212 0.1463434 0.6708253 8.9253772e-39
-0.098409139 -0.19895087 0.57240057 8.8526358e-39
-0.034617439 -0.085183568 0.54574025 1.3090373e-38
-0.51132929 0.08470957 0.71773952 6.6320275e-39
-0.10811422 -0.11220476 0.59091735 9.0330586e-39
-0.30465466 0.16417249 0.62749469 9.5674816e-39
-0.14678226 0.23294228 0.43836692 9.8447761e-39
0.16362137 -0.0045756428 0.41155323 1.373678e-38
-0.48980814 0.18174225 0.37155533 1.8162577e-38
-0.44858205 -0.067647837 0.77150553 8.67758e-39
-0.3235471 -0.034126822 0.81516314 8.8504526e-39
-0.47714028 0.0040132026 0.75090766 4.1575152e-39
-0.21689744 -0.061210148 0.71304429 9.6769692e-39
-0.037929565 -0.18721497 0.5248577 1.4470736e-38
-0.033814255 0.19223368 0.55155402 7.2672824e-39
-0.44886622 0.017375326 0.75655949 5.8054983e-39
-0.26859373 0.24634506 0.37587577 1.0030284e-38
-0.023519687 0.19173472 0.55319893 6.9953422e-39
-0.48867801 -0.023925645 0.72869283 8.1251517e-39
-0.20698008 -0.032429934 0.71067369 9.1277597e-39
-0.27848008 0.259552 0.34602407 1.0306867e-38
-0.37677616 -0.040896032 0.84725565 8.6812374e-39
-0.22556858 0.2399971 0.39884079 9.0139028e-39
-0.2275469 -0.061160203 0.72394109 9.7705816e-39
-0.11809124 0.21770506 0.48830587 8.4607683e-39
0.048429996 0.012942743 0.51053184 1.3000342e-38
0.023941193 0.0590434 0.53885299 1.6036629e-38
-0.019839002 -0.091942884 0.53730321 1.4288505e-38
0.0019422895 -0.035223976 0.53402692 1.207589e-38
-0.16367272 -0.18813993 0.62638694 8.5738461e-39
0.12435089 -0.057090167 0.42209789 1.382575e-38
-0.07322643 -0.19458364 0.55029047 1.0417798e-38
-0.14629635 0.21689861 0.47287494 9.3801882e-39
0.15694371 -0.02485534 0.405 1.5023553e-38
0.040320884 0.10841838 0.51099998 7.1732538e-39
-0.084817238 -0.15678383 0.57447362 1.2076183e-38
0.084613435 -0.12668681 0.44014609 1.4287802e-38
-0.13804556 -0.14920579 0.6202454 8.6631718e-39
-0.026864808 -0.12849025 0.53040606 1.4840607e-38
-0.48939356 -0.082512513 0.71872705 1.107183e-38
-0.16968662 0.22433388 0.45372134 8.5479192e-39
-0.0080117201 -0.193517 0.49816543 1.4838439e-38
-0.19309974 0.22081643 0.45956883 8.5554848e-39
-0.2857165 0.26139838 0.36492461 1.1502165e-38
-0.24600704 0.24472241 0.39368349 1.0582738e-38
-0.025303224 -0.036596991 0.55530071 1.2723388e-38
-0.24619934 0.18012053 0.45043781 1.842959e-38
-0.52513123 -0.053724844 0.67974985 7.7495098e-39
-0.36857551 0.25436035 0.37254795 1.131164e-38
-0.17418174 -0.14934783 0.65677786 9.7705844e-39
-0.1773704 -0.18204227 0.64091635 7.9310312e-39
0.015024202 0.077384993 0.55449367 1.3458782e-38
-0.19983234 0.23654602 0.41268 1.0124621e-38
0.018448185 -0.11859547 0.50099999 1.5574572e-38
-0.6109665 -0.077238008 0.56975871 1.0785855e-38
-0.22040677 -0.11104545 0.6996969 9.5876673e-39
-0.16904479 0.065903164 0.68198037 6.160897e-39
-0.49014607 -0.082386516 0.70821226 9.8718296e-39
-0.30434594 0.21788545 0.46028894 8.9141906e-39
-0.10223615 -0.10998376 0.59153455 1.2166621e-38
-0.29302129 0.26358089 0.35896507 1.0952553e-38
-0.23440932 0.17534816 0.45478639 2.1015119e-38
-0.087639533 0.23818469 0.41881853 9.3827442e-39
-0.49701416 -0.15204106 0.662166 8.6718248e-39
-0.69975382 -0.067183793 0.46162343 9.8591969e-39
-0.43043837 0.082056813 0.82099998 4.1445448e-39
-0.037069235 -0.14694333 0.53183204 1.2720511e-38
-0.5398137 -0.12198824 0.62202668 8.1168686e-39
0.041501429 -0.0092249215 0.50233406 1.4380353e-38
0.074997343 -0.02649869 0.46903628 1.3920098e-38
0.031507101 -0.019649271 0.51381445 1.5577443e-38
-0.66435784 -0.0053074318 0.50217879 7.468237e-39
-0.12400494 0.21937707 0.4771063 1.0396501e-38
0.00096630328 0.03612056 0.55329347 1.2996379e-38
-0.17072761 0.16001132 0.65740609 7.906168e-39
0.023803262 0.06950552 0.54299998 1.5484883e-38
-0.41691607 -0.24003617 0.75771177 8.5847033e-39
-0.29143685 0.15315077 0.6811583 7.3576619e-39
-0.54103863 -0.0016490548 0.68445414 1.1440244e-38
0.11937065 -0.044302884 0.43135241 1.5208669e-38
-0.56230253 0.034339447 0.67196465 6.6421085e-39
-0.45248112 0.12707087 0.43827823 9.5905511e-39
0.073462382 0.096878447 0.50785387 1.5576726e-38
-0.61520916 0.012322906 0.5955618 1.1346231e-38
-0.30969498 0.16987275 0.45983043 2.0273951e-38
-0.030529073 0.20424236 0.521945 8.9235583e-39
-0.082177229 0.22153197 0.45998436 9.3755023e-39
0.072768152 0.041882526 0.50036168 1.2447521e-38
-0.024135292 0.20583123 0.52424091 8.8266921e-39
-0.16968669 0.22745886 0.44655877 1.0121748e-38
-0.029014111 0.060995363 0.5889551 1.1060644e-38
-0.18152402 0.16746412 0.64422959 8.8270327e-39
-0.51104009 0.21857533 0.37842223 1.7058397e-38
-0.22027709 0.18647471 0.57401508 9.9373403e-39
-0.13455957 0.22491147 0.4547599 1.0026276e-38
0.13390635 -0.1041735 0.40562373 1.4471449e-38
0.19014609 0.136067 0.42245546 1.3180009e-38
-0.48102799 0.16810563 0.36543152 1.5957094e-38
-0.5086816 -0.15554322 0.66761625 1.0606521e-38
0.0523463 0.1328866 0.51129556 7.5369945e-39
0.07766474 -0.15108731 0.43248123 1.2997063e-38
-0.29113021 0.23724958 0.40065736 1.030288e-38
0.026210664 -0.081615001 0.50055546 1.36421e-38
-0.13504614 0.21732119 0.47909915 9.0143106e-39
-0.070007183 0.19306207 0.55289793 7.546407e-39
-0.11380104 -0.030598989 0.63355339 1.2349933e-38
-0.23886746 -0.21595107 0.68531328 7.0090735e-39
-0.071303338 0.22761457 0.45969218 9.6603835e-39
-0.43500084 -0.13547966 0.76307321 9.0452863e-39
-0.22518261 -0.040916596 0.72447735 9.9556861e-39
0.18436465 0.075570323 0.41234058 1.3735697e-38
-0.026228301 -0.065085046 0.55400002 1.5667124e-38
-0.024953347 0.1881198 0.5545429 2.4842878e-39
-0.67857945 -0.051801279 0.47516567 7.3785637e-39
0.00079012773 -0.15622443 0.50272512 1.4103395e-38
0.00029908784 -0.054430332 0.52967286 1.3092525e-38
-0.27088237 0.060641788 0.76488191 4.5950524e-39
-0.12681426 0.24195172 0.40765417 9.6614667e-39
-0.20416182 -0.14157316 0.67610753 9.951052e-39
-0.26548141 0.25907174 0.34264603 9.5678739e-39
0.021044616 0.091018826 0.53667134 9.4803474e-39
0.02933719 -0.059563387 0.50700003 1.6037701e-38
-0.6501202 0.15641761 0.47350892 1.2262424e-38
0.13753438 -0.11369866 0.4026981 1.3826095e-38
-0.46953857 0.1654126 0.38461062 1.6410864e-38
-0.23589082 0.24914004 0.37304661 1.0028838e-38
-0.17201491 0.23854406 0.43057182 1.0302883e-38
-0.15497671 0.0219962 0.68671012 1.2901277e-38
-0.1151014 -0.035678178 0.62900609 1.2628669e-38
-0.0015083074 -0.14894679 0.50393248 1.4380348e-38
-0.192747 -0.12201016 0.67857814 9.9546141e-39
-0.3072643 0.25945914 0.35115954 1.0126053e-38
-0.12289267 0.19679129 0.54200286 8.8298983e-39
-0.65469587 -0.072670169 0.49868134 7.2914211e-39
0.0022654613 -0.077764601 0.52133435 1.2815937e-38
-0.47576499 0.17172925 0.37523118 1.3834086e-38
-0.4107863 0.15471087 0.64710808 4.7862596e-39
-0.10331974 -0.029642917 0.62404633 1.271835e-38
-0.25917158 0.17001805 0.45992565 1.5850279e-38
-0.1859583 0.24363814 0.39379078 9.6539207e-39
-0.1164594 -0.047445327 0.62767464 1.263012e-38
-0.40321526 -0.16496521 0.77593392 8.7712372e-39
0.15229353 -0.09578643 0.39300001 1.4195593e-38
-0.10200186 -0.051894762 0.61964262 1.1890387e-38
0.067844994 0.0013188573 0.49215281 1.3090741e-38
-0.33851039 0.27055299 0.32198799 1.1042249e-38
-0.32879508 0.26082483 0.34074149 1.0303993e-38
-0.12813577 0.22323637 0.45774686 1.0306142e-38
-0.2606613 -0.077663802 0.75083417 9.4018061e-39
-0.41922402 -0.035831865 0.8204267 9.9723265e-39
-0.34139225 0.2219556 0.46621907 1.1870539e-38
-0.34212366 0.25176474 0.35094431 8.8331507e-39
-0.36239254 -0.13991265 0.82431918 8.4881735e-39
-0.23590687 0.23155312 0.41964057 1.0674555e-38
-0.014845708 -0.061527733 0.53927821 1.1892182e-38
-0.10810283 -0.026259789 0.62951392 1.3918688e-38
-0.49367177 0.083810732 0.7217555 4.6969731e-39
0.022692312 0.1154817 0.52383524 5.8879479e-39
-0.2199406 -0.15827399 0.6732704 8.4784429e-39
-0.30858132 0.028060362 0.78995103 4.3234836e-39
-0.023873596 0.20141584 0.52938223 8.2825105e-39
-0.8048144 0.013689712 0.35984051 1.059566e-38
-0.31539091 0.2567924 0.33976081 8.5576681e-39
-0.44336626 0.23903565 0.39775679 9.9373403e-39
-0.19873643 0.2429637 0.39289895 9.7529294e-39
0.14247413 -0.014025951 0.421 1.4841679e-38
-0.73383504 0.052803788 0.46017194 1.0136517e-38
0.13044012 -0.01734175 0.43000001 1.5393058e-38
0.06975276 -0.071394004 0.46799999 1.6221374e-38
0.14043425 0.17995307 0.47535974 1.2997782e-38
0.12195511 0.00077678415 0.44299999 1.548418e-38
-0.34631848 0.2696676 0.34153938 1.0489781e-38
0.0049396395 -0.10680306 0.50978953 1.5577796e-38
0.15816247 -0.050088037 0.40470147 1.3918296e-38
-0.2468396 0.25241113 0.39356217 1.0118469e-38
0.034899693 -0.030304499 0.50607449 1.3459503e-38
-0.19543511 0.17800634 0.56769687 1.0394747e-38
-0.16258147 0.2385098 0.41559333 1.0031704e-38
0.1736477 0.15038757 0.44077626 1.2997419e-38
-0.19481397 0.22998391 0.43115619 9.1929201e-39
-0.046626229 -0.10864481 0.55229062 1.4933153e-38
-0.1504814 0.21846321 0.45404872 9.8465894e-39
-0.013558568 -0.039439823 0.54524839 1.1989067e-38
-0.16420548 0.24644636 0.39931494 1.0305034e-38
0.032685678 0.036390722 0.52710533 1.2905981e-38
-0.17621168 -0.0020862124 0.69754922 1.0044671e-38
-0.084914126 0.23541969 0.43696404 9.3841539e-39
-0.036318686 -0.073235825 0.5538848 1.2907776e-38
-0.041263524 -0.11513186 0.54920965 1.1984395e-38
-0.16429435 0.21704689 0.47602853 9.0161225e-39
-0.0080598174 0.10171814 0.54896259 7.2622055e-39
-0.41915706 -0.10569617 0.78560162 9.1375114e-39
0.02644307 -0.051248759 0.50887418 1.3643178e-38
0.013730602 -0.031746987 0.52368081 1.2907057e-38
-0.61478537 0.0010092444 0.58042306 8.5756762e-39
-0.39137295 -0.20620726 0.80000001 6.1969496e-39
-0.8201887 0.14226907 0.3830708 6.3482142e-39
0.14811642 0.1093538 0.44955155 1.4287436e-38
-0.24344565 0.17311163 0.45754147 2.0460032e-38
-0.13631421 0.020150797 0.676 1.3731737e-38
-0.14625481 -0.000113305 0.67922151 1.1893997e-38
-0.20485173 0.23556611 0.4091377 9.5670976e-39
-0.55643374 0.27588785 0.31998068 9.016463e-39
0.061825354 -0.036417674 0.48300001 1.640541e-38
0.029231714 -0.13854937 0.48234302 1.1712813e-38
-0.19025148 0.24139535 0.41124162 1.0490186e-38
0.033944018 0.073175363 0.53319317 1.5022853e-38
0.066459805 -0.07754726 0.464939 1.603698e-38
-0.14384341 -0.020681903 0.65776819 1.0605058e-38
-0.16635153 0.23457012 0.42200863 1.0305779e-38
-0.19276404 0.17636514 0.4653061 1.0202658e-39
-0.012367832 -0.099323593 0.5286895 1.4747315e-38
-0.43244407 -0.17224458 0.75872356 1.0428982e-38
-0.55301535 0.077278428 0.66528314 7.7387296e-39
-0.62515289 -0.096481778 0.5455156 1.1247186e-38
0.041363895 -0.16022933 0.46732536 1.4286704e-38
0.12147016 0.16712379 0.48663521 1.2997785e-38
-0.3969714 0.21787116 0.46658379 8.6509231e-39
-0.15831427 -0.086527333 0.65729082 9.5890686e-39
-0.31249902 -0.13087845 0.77136648 9.4022012e-39
0.024574814 -0.034112915 0.51340932 1.5486692e-38
0.021134827 0.19868329 0.54829258 9.1057467e-39
-0.15072131 0.23298346 0.43255693 9.6629464e-39
-0.31731147 0.24923493 0.38207251 1.0307199e-38
-0.64043951 0.17720231 0.41864622 1.2440319e-38
-0.1710636 0.19180374 0.54614592 9.4781642e-39
-0.38759962 -0.15525572 0.82063043 8.5893472e-39
-0.2833972 0.26547536 0.3381941 9.2041165e-39
0.093652584 0.015485823 0.46932018 1.6037351e-38
-0.0053248308 0.14804739 0.56537056 5.3351272e-39
-0.2207278 0.19832152 0.44804683 1.4283036e-38
-0.0069472208 0.052600387 0.56599998 1.5481663e-38
-0.20588753 0.24938071 0.39015782 1.0030647e-38
-0.33098325 0.24914306 0.39214838 1.1132997e-38
-0.29308814 -0.15038554 0.74451721 8.3923583e-39
-0.12663658 -0.029160336 0.65170503 1.2440321e-38
-0.21510436 0.25469059 0.35383597 8.7362832e-39
0.015053481 -0.11245836 0.505 1.4933856e-38
-0.33846259 0.26590481 0.34362307 1.1866965e-38
-0.72245741 0.044551983 0.46762896 9.9535701e-39
0.11899 0.092730142 0.46799999 1.4012994e-38
-0.13079374 -0.18519121 0.60636705 1.0138648e-38
0.16774033 0.019637715 0.41029596 1.5206869e-38
-0.091466114 0.22536112 0.45488596 9.2941359e-39
-0.5084244 0.21686466 0.36689892 1.3376703e-38
-0.40434217 0.15820959 0.63418406 5.7975473e-39
-0.11281605 0.22147577 0.4586468 1.049159e-38
0.12185958 0.15336642 0.48235217 1.3640281e-38
-0.75175798 -0.0027376453 0.41803622 7.6572946e-39
-0.57643181 0.18876074 0.33395106 1.4566562e-38
-0.22027709 0.18647471 0.57401508 9.9373403e-39
-0.13236448 0.18340421 0.58582091 8.4589578e-39
0.078338884 0.10917746 0.49990454 9.3867295e-39
-0.20466161 0.22032984 0.46014172 6.3409849e-39
0.0028628677 -0.11594541 0.50866729 1.2351382e-38
-0.20992735 0.18037944 0.45003757 1.8154065e-38
-0.1266444 0.15945575 0.64470065 7.6331558e-39
-0.28206199 0.18192765 0.45932367 2.3404952e-38
-0.17010331 0.25507462 0.36300203 9.8451699e-39
0.046907604 0.20363919 0.52968836 8.2781889e-39
0.10423135 -0.054834653 0.4394376 1.3827179e-38
-0.54456091 -0.044649668 0.64446223 8.8508183e-39
0.0019443014 0.013888231 0.54671746 1.2538648e-38
0.11347532 -0.047229633 0.43304667 1.5116834e-38
-0.27737528 0.27479169 0.30436295 9.111195e-39
0.10827022 -0.071319416 0.43006265 1.3460558e-38
-0.41546425 0.17169811 0.60421658 5.9805092e-39
-0.32717067 0.15278693 0.46158573 1.8525837e-38
-0.24878994 0.23548795 0.42341644 1.0858953e-38
-0.80338109 -0.026337922 0.34861764 9.2177679e-39
-0.14562535 0.241312 0.39122215 1.0951162e-38
0.021223281 0.099953376 0.52870554 7.4444457e-39
-0.31857318 0.16836432 0.45657694 2.0370861e-38
-0.48978373 0.1879385 0.36669976 1.4844645e-38
-0.21170281 0.19856282 0.53750014 3.5870004e-39
-0.20834287 0.23209481 0.42937696 1.0952221e-38
-0.21955638 0.17700511 0.44814587 2.0646706e-38
3.1563111e-05 -0.062174074 0.52781683 1.318364e-38
-0.32493952 0.094713308 0.83099997 1.2856969e-39
-0.42327416 0.23766567 0.41641787 1.1413542e-38
0.032047857 -0.055925474 0.50187039 1.3459149e-38
-0.15436086 0.06245134 0.67199999 5.6977706e-39
-0.34507266 0.11300509 0.74959964 4.4167751e-39
-0.14196233 -0.1330031 0.61369544 9.1259759e-39
-0.73039174 0.045494035 0.4696638 1.1983655e-38
-0.25945577 0.22286685 0.45809895 1.0951149e-38
-0.47926334 -0.05181646 0.73965198 7.8467431e-39
-0.22616772 0.1737299 0.47253853 1.852691e-38
0.10996267 -0.069797762 0.43619388 1.3920799e-38
-0.24925512 0.17918465 0.45520341 1.9817309e-38
0.10629896 0.1415689 0.49043444 1.4747688e-38
0.1264409 0.07299675 0.46026844 1.502212e-38
-0.058900077 0.20323412 0.51735437 9.844409e-39
0.068907775 0.10204348 0.5165019 9.8502216e-39
0.040241979 -0.0062598633 0.50999999 1.53945e-38
-0.66874492 -0.13115661 0.47580975 8.7571821e-39
0.05566553 0.028229516 0.50645226 1.5300512e-38
-0.062026463 -0.17247817 0.55143553 1.3363322e-38
-0.22535473 0.17868678 0.44749853 2.0462293e-38
-0.37465769 0.24586502 0.38496715 9.9362837e-39
-0.19757837 0.22718775 0.45426115 1.0028795e-38
-0.16320957 0.20961276 0.49397442 8.9246723e-39
0.00408412 0.013759905 0.54731256 1.3093247e-38
-0.028592011 -0.057918761 0.5517627 1.2172013e-38
0.070382252 -0.13839208 0.45100001 1.5483809e-38
0.02134574 -0.036488272 0.51816839 1.3091094e-38
0.024810135 0.071233749 0.54145372 1.603518e-38
-0.14838734 0.023169376 0.67482847 1.0144817e-38
-0.14162958 0.21223858 0.50746328 8.8327976e-39
-0.063992836 -0.14741904 0.55707753 1.0788729e-38
-0.19895013 0.060356062 0.709113 6.0708888e-39
-0.19169627 0.013716149 0.72141969 9.4925696e-39
-0.062648356 -0.16484325 0.55093229 1.0143722e-38
-0.032274526 0.20159052 0.51828915 8.1870779e-39
-0.065218478 0.21911621 0.48106304 3.130355e-39
0.031010024 -0.074003562 0.49915311 1.2997811e-38
